# .PCD v0.7 - Point Cloud Data file format
VERSION 0.7
FIELDS x y z rgba
SIZE 4 4 4 4
TYPE F F F U
COUNT 1 1 1 1
WIDTH 1084
HEIGHT 1
VIEWPOINT 0 0 0 1 0 0 0
POINTS 1084
DATA ascii
1.0614688 -0.35032809 1.3402002 4283058762
1.1113591 -0.36183539 1.384222 4283321934
1.1070935 -0.35923249 1.3742645 4283256141
1.1163714 -0.361027 1.3811295 4283190348
1.1166565 -0.35991096 1.37686 4283190348
1.1180917 -0.35917184 1.3740325 4283124555
1.1038282 -0.33985722 1.3001434 4282992969
1.1103261 -0.34076875 1.3036306 4283058762
1.119857 -0.34260237 1.3106451 4283124555
1.1451417 -0.3492288 1.3359948 4283124555
1.1553732 -0.35013226 1.3394511 4282664004
1.1475065 -0.34665772 1.3261591 4282532418
1.1526182 -0.34711343 1.3279024 4282598211
0.6002872 -0.53044295 2.0505254 4291546059
0.60646665 -0.5309819 2.0526087 4289440683
0.61137056 -0.53040427 2.0503759 4292335575
0.66714364 -0.53051335 2.0507975 4291414473
0.65861195 -0.51939666 2.0078237 4289374890
0.65393364 -0.51147616 1.9772056 4291875024
0.65981352 -0.51187557 1.9787499 4292072403
0.66599715 -0.51250231 1.9811723 4289572269
0.66908294 -0.51075417 1.9744146 4292072403
0.67193389 -0.50885594 1.9670769 4294769916
0.67009884 -0.50346696 1.9462446 4292598747
0.67256373 -0.50136769 1.9381294 4289967027
1.028657 -0.51918077 2.0069892 4282203453
1.0224586 -0.51333463 1.98439 4282203453
1.0279157 -0.51337087 1.9845302 4282137660
1.032002 -0.51272571 1.9820362 4282203453
1.0220772 -0.50516224 1.9527981 4282203453
1.0175724 -0.50034177 1.9341638 4282137660
1.0189632 -0.49845481 1.9268694 4282269246
1.0201409 -0.49648333 1.9192482 4282400832
1.0168755 -0.49238062 1.9033884 4282598211
0.97439033 -0.46241441 1.7875484 4283453520
0.97768593 -0.46168017 1.7847102 4283650899
0.99070275 -0.4655211 1.7995579 4283585106
0.99989331 -0.46753526 1.8073441 4283585106
0.99282753 -0.46196562 1.7858136 4283585106
0.99863672 -0.46241173 1.7875382 4283387727
1.0111295 -0.46593338 1.8011516 4283321934
1.0157387 -0.46580583 1.8006586 4283256141
1.0191878 -0.46515006 1.7981237 4283124555
1.0196835 -0.46315899 1.7904269 4282861383
1.0175222 -0.45998579 1.7781601 4282598211
1.0095589 -0.45423192 1.7559175 4282400832
1.0106434 -0.45258388 1.7495468 4282335039
1.0107853 -0.45053118 1.7416117 4282400832
1.0117884 -0.44887963 1.7352272 4282269246
1.0122521 -0.44700518 1.7279812 4282203453
1.015057 -0.4461771 1.7247801 4282137660
1.0203292 -0.44643611 1.7257814 4282335039
1.0243485 -0.4461472 1.7246644 4282664004
1.0287415 -0.44602281 1.7241837 4282400832
1.0360088 -0.44714016 1.728503 4282203453
1.0373636 -0.44570708 1.7229631 4282466625
1.0398188 -0.44475752 1.7192924 4282927176
1.039903 -0.44280687 1.7117519 4283058762
1.0362499 -0.43928924 1.6981539 4283124555
1.0313278 -0.43526715 1.6826057 4283124555
1.0235579 -0.4300839 1.6625688 4282927176
1.0217545 -0.42744225 1.6523571 4282729797
1.0254433 -0.42711121 1.6510775 4282795590
1.0237389 -0.42454642 1.6411629 4282729797
1.0238324 -0.42274633 1.6342041 4282729797
1.0251018 -0.42144507 1.629174 4282466625
1.0249255 -0.41956323 1.6218994 4282137660
1.0282904 -0.41914099 1.6202672 4282071867
1.0287449 -0.41754109 1.6140823 4282071867
1.0241405 -0.41391006 1.6000459 4282203453
1.0219805 -0.41129351 1.5899311 4282335039
1.0021249 -0.40160733 1.5524874 4282335039
0.98187256 -0.39184391 1.5147451 4282400832
0.96490347 -0.38346666 1.4823614 4282532418
0.95075178 -0.37627405 1.4545571 4282598211
0.9391036 -0.37012762 1.4307967 4282598211
0.93425477 -0.36670056 1.4175489 4282664004
0.93120873 -0.36400628 1.4071337 4282729797
0.92786324 -0.36121747 1.396353 4282861383
0.92360383 -0.35809702 1.3842902 4282927176
0.91779548 -0.35440367 1.370013 4282927176
0.93076193 -0.35796073 1.3837634 4282992969
0.92957294 -0.35606709 1.3764431 4283124555
0.92690623 -0.35362476 1.3670019 4283190348
0.93283081 -0.35446656 1.3702561 4283058762
0.9546876 -0.3613317 1.3967946 4283124555
0.96766484 -0.36479509 1.410183 4282992969
0.96918315 -0.36392844 1.4068327 4282927176
0.97059745 -0.36302963 1.4033582 4283058762
0.9732874 -0.36261308 1.4017479 4282992969
0.97477466 -0.36175343 1.3984249 4283058762
0.97596419 -0.36079043 1.3947022 4283190348
1.0780615 -0.36720747 1.4195083 4283321934
1.073719 -0.36313349 1.4037597 4283256141
1.0754961 -0.36244872 1.4011126 4283190348
1.0748061 -0.36094028 1.3952814 4283058762
1.0742087 -0.35947341 1.389611 4282795590
1.071491 -0.35730973 1.3812468 4282729797
1.0705793 -0.35576132 1.3752612 4282795590
1.0742011 -0.3557249 1.3751204 4282992969
1.0731108 -0.35413373 1.3689694 4282992969
1.0844088 -0.35662764 1.3786101 4283058762
1.0769961 -0.35297224 1.3644795 4283058762
1.0393826 -0.33947784 1.3123143 4283058762
1.1231151 -0.35823497 1.3848236 4283256141
1.0984476 -0.33576304 1.2979541 4283124555
1.1066163 -0.33717886 1.3034272 4283058762
1.1180166 -0.33956724 1.31266 4282992969
1.1343195 -0.34342465 1.3275716 4283058762
1.1514322 -0.34750208 1.3433336 4283058762
1.1566958 -0.34798905 1.345216 4282927176
1.1663253 -0.34978229 1.3521482 4282664004
1.172888 -0.35064736 1.3554922 4282598211
1.1803186 -0.35176572 1.3598155 4282598211
0.60064578 -0.5251925 2.0517504 4289638062
0.6077379 -0.52651358 2.0569112 4286940549
0.61360103 -0.52675545 2.0578561 4290559164
0.66510934 -0.52334797 2.0445442 4290295992
0.65756124 -0.51312858 2.0046206 4294572537
0.65367019 -0.50590724 1.9764093 4294967295
0.6600967 -0.50672376 1.979599 4291809231
0.6655407 -0.5067789 1.9798145 4289045925
0.66780752 -0.50443327 1.970651 4291019715
0.67060244 -0.50252068 1.963179 4293190884
0.66916347 -0.4974905 1.9435279 4291875024
0.67204964 -0.49572945 1.936648 4289638062
0.67545533 -0.49437585 1.93136 4289309097
1.025461 -0.51213878 2.0007539 4282137660
1.0276903 -0.51054925 1.994544 4282137660
1.0370102 -0.51248044 2.0020885 4282137660
1.0416738 -0.51210237 2.0006115 4282269246
1.0244395 -0.5010187 1.9573114 4282400832
1.0173877 -0.4950037 1.9338129 4282400832
1.0184109 -0.49295902 1.9258249 4282598211
0.98821151 -0.45947981 1.7950329 4283256141
1.0008824 -0.46308881 1.809132 4283321934
0.99574411 -0.45846277 1.7910597 4283256141
1.0034356 -0.45976013 1.796128 4282992969
1.0146353 -0.46264464 1.8073969 4282861383
1.0176117 -0.46176982 1.8039793 4282795590
1.0194784 -0.46040219 1.7986364 4282664004
1.0201563 -0.45851332 1.7912571 4282598211
1.0184009 -0.45555392 1.7796957 4282400832
1.0097654 -0.44955927 1.7562767 4282400832
1.0104661 -0.44775805 1.7492399 4282598211
1.0100853 -0.44549671 1.7404057 4282466625
1.0107502 -0.44371539 1.7334467 4282203453
1.0104671 -0.44153637 1.724934 4282137660
1.0134962 -0.44081813 1.7221279 4282137660
1.0186799 -0.44103926 1.7229919 4282400832
1.0224376 -0.44064379 1.721447 4282598211
1.0274805 -0.44080335 1.7220703 4282335039
1.0354588 -0.44221503 1.7275852 4282137660
1.0370803 -0.44091144 1.7224926 4282532418
1.0404207 -0.44034705 1.7202877 4282927176
1.0411427 -0.4386844 1.7137924 4282992969
1.0381892 -0.43549484 1.7013317 4282927176
1.0335389 -0.43162489 1.6862131 4282664004
1.0285757 -0.42765889 1.6707194 4282466625
1.0265893 -0.42495999 1.6601757 4282532418
1.0279967 -0.42368346 1.6551886 4282729797
1.0235106 -0.41999954 1.6407969 4282861383
1.0223299 -0.41769809 1.6318058 4282729797
1.0215052 -0.41556135 1.6234583 4282532418
1.0190543 -0.41278416 1.6126087 4282335039
1.0209002 -0.41176382 1.6086226 4282137660
1.0221692 -0.4105204 1.6037651 4282335039
1.0159576 -0.40629596 1.5872614 4282532418
1.0085958 -0.40164918 1.5691082 4282532418
0.99141425 -0.39314741 1.5358946 4282598211
0.970981 -0.38343275 1.4979427 4282729797
0.95777035 -0.37663931 1.4714029 4282795590
0.9456743 -0.3703388 1.446789 4282795590
0.93640327 -0.36519209 1.4266826 4282795590
0.93315923 -0.36242861 1.4158866 4282927176
0.93130195 -0.36022419 1.4072746 4282927176
0.92710936 -0.35713813 1.3952185 4282992969
0.92266166 -0.35397938 1.3828782 4282992969
0.92278928 -0.35259435 1.3774674 4282861383
0.93084937 -0.35423926 1.3838935 4282992969
0.94634438 -0.35441697 1.3845878 4282992969
0.96028727 -0.35821661 1.3994317 4282927176
0.96745712 -0.35946971 1.4043272 4282992969
0.97057092 -0.35921186 1.4033198 4283058762
0.9731639 -0.35876396 1.4015701 4283058762
0.97417086 -0.35773718 1.3975588 4283124555
0.97395152 -0.35626975 1.3918259 4283256141
1.0798879 -0.36527637 1.4270117 4283256141
1.0756361 -0.36253825 1.4163148 4283321934
1.0676022 -0.35854939 1.4007318 4283256141
1.0715729 -0.35860625 1.4009539 4283256141
1.0736177 -0.35802048 1.3986654 4283190348
1.0724583 -0.35637406 1.3922335 4282992969
1.0711076 -0.35467592 1.3855994 4282729797
1.0662973 -0.35184804 1.3745518 4282664004
1.0629183 -0.34951049 1.3654197 4282729797
1.0647371 -0.34889245 1.3630054 4282927176
1.0620387 -0.34680358 1.3548448 4283058762
1.0690277 -0.34788159 1.3590562 4282992969
1.0200081 -0.32965532 1.2878524 4283124555
0.98617047 -0.31763119 1.2408781 4283190348
0.96823728 -0.31079406 1.2141677 4283124555
1.1360425 -0.35855749 1.4007634 4283190348
1.0985121 -0.33226061 1.2980304 4283124555
1.1062523 -0.33353236 1.3029987 4283124555
1.1190336 -0.33631101 1.313854 4283058762
1.1348799 -0.33999029 1.3282276 4282992969
1.1526796 -0.34422952 1.3447889 4282992969
1.1623209 -0.34601337 1.3517578 4282927176
1.1771284 -0.34931916 1.3646723 4282861383
1.19055 -0.35219413 1.375904 4282729797
1.1941772 -0.35216281 1.3757815 4282598211
0.59955531 -0.51868188 2.0480256 4290230199
0.60705525 -0.52034706 2.0546007 4290624957
0.66572583 -0.51828009 2.0464392 4292598747
0.65998375 -0.50955951 2.0120058 4294967295
0.65444857 -0.50114036 1.9787626 4294309365
0.66007131 -0.50133288 1.9795229 4289835441
0.66429406 -0.5004676 1.976106 4287927444
0.66637576 -0.49801603 1.9664261 4289967027
0.66926771 -0.49620408 1.9592717 4292401368
0.66736329 -0.49089271 1.9382995 4290624957
0.66833133 -0.48776072 1.9259329 4287730065
0.67144877 -0.48623386 1.919904 4288716960
0.67789626 -0.4871234 1.9234164 4289769648
1.0488929 -0.5210467 2.057363 4282203453
1.0373999 -0.51260918 2.0240474 4282203453
1.047646 -0.51494586 2.0332742 4282203453
1.0543076 -0.51550543 2.0354834 4282335039
1.0523121 -0.51184833 2.0210433 4282598211
1.0310662 -0.49891424 1.9699728 4282861383
1.0178335 -0.48997098 1.9346602 4283190348
0.97859049 -0.45018306 1.7775568 4282927176
0.99472857 -0.45536265 1.7980086 4282861383
0.99335545 -0.45251471 1.7867632 4282532418
1.0022126 -0.45433202 1.793939 4282400832
1.0113003 -0.4562358 1.8014561 4282335039
1.0124006 -0.45453516 1.794741 4282335039
1.0145139 -0.45330343 1.7898775 4282532418
1.0165803 -0.45206261 1.7849782 4282729797
1.0162011 -0.4497512 1.7758515 4282598211
1.0077156 -0.44389075 1.7527115 4282400832
1.0094664 -0.44257331 1.7475094 4282400832
1.0086315 -0.44013977 1.7379005 4282400832
1.0094538 -0.43844867 1.7312233 4282137660
1.0091269 -0.43627644 1.7226461 4282071867
1.012126 -0.43555552 1.7197996 4282071867
1.0171378 -0.43570337 1.7203834 4282466625
1.0203748 -0.43509316 1.7179739 4282729797
1.0263712 -0.43565974 1.720211 4282269246
1.0351752 -0.43740749 1.7271122 4282137660
1.0368203 -0.4361282 1.7220608 4282400832
1.0407161 -0.43580285 1.7207762 4282664004
1.0415931 -0.43422189 1.7145338 4282664004
1.0396712 -0.43149346 1.7037605 4282400832
1.0380862 -0.42892832 1.6936319 4282137660
1.035668 -0.42604309 1.6822395 4282137660
1.0359085 -0.42427206 1.6752466 4282335039
1.0328025 -0.42115188 1.6629264 4282466625
1.0253775 -0.41630536 1.6437899 4282598211
1.0233456 -0.41368085 1.633427 4282664004
1.0219723 -0.41134414 1.6242005 4282598211
1.0187089 -0.40826997 1.6120621 4282466625
1.0186526 -0.40650192 1.6050808 4282466625
1.0194347 -0.40508208 1.5994745 4282532418
1.0076835 -0.39871517 1.5743347 4282664004
0.99782199 -0.39314657 1.5523469 4282861383
0.98330373 -0.38579768 1.5233297 4282927176
0.96785259 -0.37814587 1.4931164 4282927176
0.95439941 -0.37133515 1.4662242 4282992969
0.93828744 -0.36355087 1.4354879 4282992969
0.93403214 -0.36040595 1.4230701 4282992969
0.93374097 -0.35881022 1.4167693 4282992969
0.93415564 -0.35749772 1.4115868 4282992969
0.93015325 -0.35451239 1.3997992 4282992969
0.92505378 -0.35113496 1.3864634 4282992969
0.96255332 -0.35525566 1.402734 4283058762
0.96927136 -0.3563261 1.4069607 4283058762
0.97204942 -0.35594541 1.4054574 4283124555
0.97461778 -0.35549116 1.4036639 4283256141
0.9760685 -0.35463446 1.4002812 4283321934
0.97548884 -0.35304949 1.3940229 4283387727
0.97169894 -0.35031945 1.3832433 4283321934
1.0704638 -0.35825029 1.4145583 4283190348
1.0680702 -0.35617211 1.4063526 4283256141
1.0625319 -0.35306382 1.3940794 4283321934
1.067663 -0.35351023 1.3958422 4283256141
1.0704499 -0.35318011 1.3945386 4283124555
1.0695053 -0.35162547 1.3884001 4282795590
1.0682873 -0.34999213 1.3819509 4282598211
1.0635779 -0.3472304 1.3710462 4282598211
1.0602161 -0.34492633 1.3619485 4282795590
1.061895 -0.34427255 1.359367 4282927176
1.0583831 -0.34194618 1.3501813 4282927176
1.0129181 -0.3238937 1.2789006 4282992969
0.97761887 -0.31153899 1.2301178 4283124555
1.133774 -0.33605841 1.3269333 4282992969
1.1482086 -0.33925951 1.3395729 4282927176
1.1552781 -0.34027112 1.3435673 4282927176
1.1648935 -0.34202391 1.3504881 4282992969
1.1841983 -0.34660164 1.3685634 4282861383
1.191134 -0.34754178 1.3722756 4282729797
0.59654748 -0.51532686 2.0568154 4290559164
0.60025132 -0.51372033 2.0504031 4287598479
0.60741866 -0.51508015 2.0558305 4291809231
0.61337644 -0.51539892 2.0571029 4291151301
0.66729861 -0.51393855 2.0512738 4294967295
0.66275764 -0.50621873 2.020462 4292467161
0.65528327 -0.4964034 1.9812864 4291546059
0.66396594 -0.48316097 1.9284321 4289769648
0.65818167 -0.4752067 1.8966844 4287927444
0.65665585 -0.47042665 1.8776058 4287335307
0.65748525 -0.46739444 1.8655035 4287269514
0.66427499 -0.46861333 1.8703684 4288190616
0.69387394 -0.48578253 1.9388955 4292927712
1.043741 -0.51567692 2.0582125 4282203453
1.0402932 -0.51123798 2.0404954 4282400832
1.0368296 -0.5068382 2.0229347 4282598211
1.0440816 -0.50769544 2.0263562 4282795590
1.0469514 -0.50642395 2.0212812 4283190348
1.0449605 -0.50282681 2.0069242 4283585106
1.0233833 -0.48989099 1.9552934 4283716692
0.73690903 -0.33870861 1.3518819 4283124555
0.98279208 -0.44507819 1.776433 4282269246
0.97955102 -0.44144526 1.761933 4282071867
0.98894864 -0.44351572 1.7701967 4282071867
1.0009055 -0.44670838 1.7829396 4282071867
1.0019696 -0.44503218 1.7762493 4282137660
1.0041753 -0.44387674 1.7716376 4282466625
1.0082256 -0.44354367 1.7703083 4282795590
1.0094967 -0.44199705 1.7641351 4282664004
1.0011532 -0.43627518 1.7412977 4282269246
1.0050063 -0.43589705 1.7397884 4282203453
1.0056856 -0.43415228 1.7328246 4282269246
1.0079521 -0.43310586 1.7286479 4282071867
1.0077173 -0.43099922 1.7202399 4282071867
1.0107481 -0.43030238 1.7174585 4282137660
1.015877 -0.43050092 1.718251 4282466625
1.0185068 -0.42964354 1.7148288 4282532418
1.0256407 -0.43068528 1.7189867 4282137660
1.0351926 -0.43272835 1.7271411 4282071867
1.036907 -0.43149155 1.7222048 4282006074
1.0415685 -0.4314867 1.7221855 4282071867
1.0438163 -0.43048659 1.7181937 4282137660
1.0441084 -0.42869225 1.7110319 4282006074
1.0447147 -0.42704225 1.7044464 4282137660
1.0438199 -0.42479596 1.6954807 4282400832
1.0462741 -0.42392626 1.6920096 4282532418
1.0419055 -0.42031184 1.6775833 4282598211
1.0300115 -0.41370624 1.6512187 4282664004
1.0267693 -0.41061783 1.6388918 4282729797
1.024389 -0.40789929 1.6280415 4282664004
1.0196235 -0.40425834 1.6135094 4282729797
1.0150893 -0.40073991 1.5994663 4282795590
1.0161326 -0.39944395 1.5942938 4282861383
1.0013543 -0.39196581 1.5644464 4282927176
0.99427193 -0.38755059 1.546824 4282992969
0.99171484 -0.38492894 1.5363603 4282992969
1.0497882 -0.40239525 1.6060731 4282927176
1.0560448 -0.40311995 1.6089656 4282992969
1.0621357 -0.40377575 1.6115831 4282861383
1.0778658 -0.40807551 1.6287448 4282992969
1.0849494 -0.40907997 1.632754 4282992969
1.087708 -0.40845221 1.6302483 4282927176
1.0904808 -0.40783483 1.6277841 4282927176
0.95737457 -0.34955853 1.395187 4283256141
0.96626747 -0.35141593 1.4026004 4283190348
0.97038162 -0.3515276 1.403046 4283190348
0.97426826 -0.35155627 1.4031606 4283256141
0.97647107 -0.35097954 1.4008586 4283321934
0.97600377 -0.34945124 1.3947588 4283387727
1.0673573 -0.35338345 1.4104532 4283124555
1.0654719 -0.35149884 1.4029313 4283190348
1.0613401 -0.34888926 1.3925157 4283256141
1.0666659 -0.34939608 1.3945386 4283256141
1.0697309 -0.34916139 1.3936018 4283058762
1.0693133 -0.34779564 1.3881507 4282795590
1.0680915 -0.34617883 1.3816975 4282664004
1.0632713 -0.34341115 1.370651 4282664004
1.0600759 -0.34118566 1.3617685 4282795590
1.0624837 -0.34077281 1.3601205 4282861383
1.0603561 -0.33891317 1.3526983 4282927176
1.156541 -0.33593327 1.3408048 4282992969
1.1728623 -0.33960575 1.3554626 4282927176
0.60280645 -0.51031971 2.0591311 4287993237
0.67115438 -0.50708032 2.0460601 4288519581
0.66179013 -0.47636214 1.9221127 4288651167
0.64693964 -0.46203136 1.8642883 4286940549
0.64917147 -0.46002817 1.8562056 4286414205
0.65275002 -0.45900279 1.8520682 4288190616
0.65932405 -0.4600834 1.8564284 4291743438
1.0356451 -0.50613552 2.0422478 4282861383
1.0366322 -0.50392151 2.0333142 4283124555
1.0370944 -0.50147712 2.0234513 4283321934
1.0406026 -0.50052369 2.0196042 4283519313
0.72688943 -0.33380818 1.3469101 4284111450
0.73363864 -0.33522215 1.3526155 4284243036
0.7391299 -0.33605009 1.3559561 4283650899
0.74735308 -0.33810574 1.3642507 4282927176
0.76083332 -0.34250772 1.3820126 4282400832
0.77282768 -0.34620091 1.3969146 4282137660
0.97188395 -0.43324652 1.748142 4282006074
0.98696488 -0.43783236 1.7666458 4282071867
1.000317 -0.44161066 1.7818912 4281940281
1.0015206 -0.44001523 1.7754536 4282071867
1.0041409 -0.4390544 1.7715766 4282466625
1.0082256 -0.43874007 1.7703083 4282729797
1.0090878 -0.43703309 1.7634207 4282466625
1.002305 -0.43204674 1.743301 4282071867
1.0052836 -0.43129516 1.7402683 4282006074
1.0054771 -0.42936134 1.7324654 4282137660
1.0071131 -0.42805862 1.7272089 4282137660
1.0059706 -0.42559248 1.7172581 4282071867
1.0092453 -0.42500925 1.7149048 4282006074
1.0144389 -0.42523575 1.7158186 4282137660
1.0168765 -0.42431012 1.7120838 4282203453
1.0250535 -0.42577696 1.7180026 4282071867
1.0349324 -0.42793423 1.7267069 4281940281
1.0374503 -0.42704207 1.7231071 4281874488
1.0427363 -0.42729217 1.7241163 4281874488
1.0462649 -0.42682314 1.7222239 4282006074
1.0488808 -0.42598772 1.7188528 4282137660
1.0508044 -0.42487964 1.7143818 4282466625
1.0507766 -0.42299575 1.7067804 4282729797
1.0542088 -0.42251515 1.7048413 4282795590
1.0489992 -0.4185904 1.6890049 4282795590
1.0349653 -0.41119385 1.6591599 4282861383
1.0294437 -0.40722871 1.6431606 4282795590
1.0246049 -0.40356669 1.6283844 4282795590
1.016054 -0.3984803 1.6078609 4282927176
1.00498 -0.39245209 1.5835372 4283058762
1.0050856 -0.39082232 1.5769612 4282992969
0.99249333 -0.38428986 1.5506027 4282992969
0.98234606 -0.37875518 1.5282705 4282992969
0.97952396 -0.3760795 1.5174742 4282927176
0.9618867 -0.36622885 1.4777268 4282927176
1.0498266 -0.39805177 1.6061318 4282861383
1.0563142 -0.39885584 1.6093762 4282927176
1.0629947 -0.39972576 1.6128864 4282992969
1.0819077 -0.40516967 1.6348524 4283058762
1.0916035 -0.40713134 1.6427677 4283058762
1.0946881 -0.40662137 1.6407099 4283058762
1.1017425 -0.4075841 1.6445946 4283124555
0.96102589 -0.3457244 1.3949918 4283190348
0.96636802 -0.34628227 1.3972428 4283124555
0.97098458 -0.34657681 1.3984313 4283256141
0.97338313 -0.34608048 1.3964286 4283321934
1.0584493 -0.34788629 1.403715 4283256141
1.0630401 -0.34814242 1.4047484 4283058762
1.0630739 -0.34690955 1.3997738 4283058762
1.0604563 -0.34482336 1.3913561 4283124555
1.0664206 -0.34553257 1.3942177 4283190348
1.0698853 -0.34542975 1.3938029 4282992969
1.0695583 -0.34410778 1.3884687 4282861383
1.0684545 -0.34254605 1.3821671 4282729797
1.0638373 -0.33987278 1.3713806 4282729797
1.0609171 -0.33775839 1.3628491 4282729797
1.0634758 -0.33739692 1.3613906 4282795590
1.0613967 -0.33557168 1.3540257 4282927176
0.63997269 -0.45205149 1.8442116 4288519581
0.64281762 -0.45053816 1.8380377 4289506476
0.64732778 -0.45020622 1.8366835 4293125091
0.65432936 -0.45159882 1.8423649 4294967295
1.0371823 -0.50403398 2.0562818 4283190348
0.70498377 -0.32677594 1.3331311 4283453520
0.71151024 -0.32811746 1.3386042 4282861383
0.71710515 -0.32901797 1.3422779 4283453520
0.72222131 -0.32969084 1.3450229 4284835173
0.72738391 -0.330378 1.3478264 4285690482
0.73249441 -0.33103478 1.3505057 4285624689
0.73662883 -0.33124608 1.3513677 4285427310
0.74278963 -0.332362 1.3559203 4284243036
0.75138652 -0.33455157 1.364853 4282927176
0.75791448 -0.33580297 1.3699584 4282269246
0.96766996 -0.4266451 1.7405622 4282006074
0.9849326 -0.43214697 1.7630081 4281940281
0.99969465 -0.43650383 1.7807825 4281874488
1.0010204 -0.43498024 1.7745669 4282071867
1.0043249 -0.43432695 1.7719015 4282466625
1.0081736 -0.43391404 1.7702172 4282664004
1.0090129 -0.43221602 1.7632898 4282400832
1.0038054 -0.42795601 1.7459104 4282071867
1.005193 -0.42653459 1.7401116 4282071867
1.004503 -0.42424899 1.730787 4282071867
1.0052369 -0.42258319 1.7239912 4281874488
1.0021956 -0.41935319 1.7108139 4281874488
1.0048912 -0.41854244 1.7075064 4281874488
1.0109261 -0.41912359 1.7098773 4282006074
1.0141745 -0.41854939 1.7075346 4282071867
1.0238869 -0.42063603 1.7160475 4282137660
1.0341524 -0.42292991 1.7254057 4282335039
1.0369936 -0.42218056 1.7223486 4282335039
1.0416496 -0.4221735 1.7223198 4282006074
1.0447862 -0.42155343 1.7197901 4281874488
1.0483038 -0.42109188 1.7179072 4282137660
1.0516794 -0.42057768 1.7158092 4282729797
1.0533823 -0.41940197 1.7110128 4282795590
1.0574163 -0.41916066 1.7100284 4282927176
1.0540618 -0.41600546 1.6971563 4282992969
1.0443943 -0.41039699 1.6742758 4283058762
1.035964 -0.40532118 1.653568 4282992969
1.0223591 -0.39827326 1.6248152 4283058762
0.97295046 -0.3757844 1.5330684 4282992969
0.97410047 -0.37462682 1.5283461 4282927176
0.97360694 -0.37284967 1.5210959 4282927176
0.97384298 -0.37136576 1.5150421 4282992969
0.97830898 -0.37150052 1.5155919 4283058762
0.9757759 -0.36898753 1.5053397 4282992969
0.97271711 -0.36629751 1.4943653 4282992969
1.0409935 -0.39038113 1.592618 4283058762
1.0500219 -0.39213893 1.5997893 4283058762
1.0801312 -0.40007553 1.6321678 4283256141
1.0954614 -0.40245348 1.6418689 4283256141
0.96225917 -0.34237796 1.396782 4283256141
0.96616715 -0.34241977 1.3969525 4283321934
0.96972102 -0.34233621 1.3966116 4283321934
0.92354047 -0.30130595 1.2292225 4283124555
0.9309594 -0.3026334 1.2346381 4283124555
1.065039 -0.34497815 1.4073899 4283058762
1.0642353 -0.34348622 1.4013032 4283124555
1.0609673 -0.34121233 1.3920267 4283124555
1.0664831 -0.34176949 1.3942996 4282992969
1.0693356 -0.34147221 1.3930868 4282927176
1.0683489 -0.33995539 1.3868988 4282795590
1.067247 -0.33841273 1.3806052 4282729797
1.0625646 -0.33574945 1.3697399 4282664004
1.0592592 -0.33353835 1.3607194 4282664004
1.0616988 -0.33314529 1.3591158 4282795590
1.0587947 -0.33108395 1.3507063 4282861383
0.63917947 -0.44649324 1.8419259 4289177511
0.64392805 -0.44632038 1.8412126 4292269782
0.65031469 -0.44727683 1.8451583 4294967295
0.70777071 -0.32443607 1.3384013 4283058762
0.7125501 -0.32495946 1.3405606 4283387727
0.71662271 -0.3251569 1.341375 4284703587
0.72197312 -0.32592914 1.3445607 4285822068
0.72651273 -0.32632944 1.3462121 4287072135
0.7301656 -0.32632944 1.3462121 4289243304
0.73319262 -0.32605115 1.3450639 4291217094
0.73888409 -0.32695454 1.3487909 4287137928
0.74644595 -0.32867271 1.3558787 4283650899
0.75243217 -0.32968357 1.3600489 4282532418
0.76428068 -0.33324063 1.374723 4282137660
0.98475283 -0.42728513 1.7626864 4281940281
0.99894065 -0.43134624 1.7794396 4282006074
1.0001075 -0.4297727 1.7729483 4282071867
1.0043133 -0.42951402 1.7718811 4282269246
1.0094048 -0.42963472 1.7723789 4282400832
1.0116445 -0.42854619 1.7678884 4282203453
1.0091805 -0.42548484 1.7552595 4282006074
1.009398 -0.42357746 1.747391 4282006074
1.008314 -0.42114434 1.7373536 4281940281
1.0058877 -0.41817579 1.7251074 4281940281
0.99936372 -0.41353917 1.7059797 4282071867
1.0007892 -0.41221961 1.7005361 4282269246
1.00796 -0.41326776 1.7048601 4282400832
1.0118158 -0.41295347 1.7035635 4282532418
1.0240518 -0.41604656 1.7163236 4282598211
1.0345047 -0.4183906 1.7259935 4282598211
1.0366471 -0.41736752 1.7217729 4282532418
1.0399345 -0.41681266 1.719484 4282137660
1.043022 -0.41618294 1.7168862 4281874488
1.047739 -0.41620603 1.7169815 4282203453
1.0515802 -0.41588265 1.7156473 4282729797
1.0543571 -0.41514301 1.7125962 4283058762
1.058957 -0.41512457 1.71252 4283124555
1.0569342 -0.41252142 1.7017813 4283124555
1.0499849 -0.40802646 1.683238 4283058762
1.0481426 -0.40554637 1.673007 4282992969
1.0307517 -0.39709768 1.6381534 4283058762
0.95321214 -0.3625353 1.4955727 4282927176
0.95571661 -0.36194688 1.4931452 4282927176
0.96204531 -0.36280563 1.4966879 4282927176
0.97357827 -0.36561152 1.5082631 4282992969
0.97146118 -0.36328936 1.4986835 4282992969
0.97044629 -0.36139697 1.4908768 4283058762
0.95971173 -0.35591573 1.4682648 4283256141
1.0501305 -0.38783807 1.5999547 4283387727
1.0983083 -0.39903265 1.6461359 4283256141
1.1111778 -0.4020732 1.658679 4283190348
0.91963446 -0.29886904 1.2329292 4283058762
0.92168581 -0.29844999 1.2312006 4283058762
0.95203745 -0.30716476 1.2671517 4283058762
0.94714737 -0.30448735 1.2561066 4282992969
0.97541249 -0.3124496 1.2889533 4282861383
1.0580812 -0.33771953 1.3931998 4282861383
1.0558937 -0.33582145 1.3853697 4282992969
1.0621042 -0.33659837 1.3885747 4283124555
1.0657475 -0.33655909 1.3884126 4282927176
1.0660912 -0.33548167 1.3839679 4282729797
1.0662327 -0.33434847 1.3792931 4282664004
1.0622256 -0.33192682 1.369303 4282664004
1.0582483 -0.32953131 1.3594208 4282664004
1.0606403 -0.32912892 1.3577608 4282729797
1.056726 -0.32677919 1.3480674 4282795590
1.053547 -0.32467225 1.3393756 4282927176
0.6419397 -0.43996158 1.8355272 4292532954
0.64679354 -0.43987542 1.8351676 4294967295
0.70940483 -0.32154506 1.3414915 4284243036
0.71292114 -0.32148927 1.3412586 4286874756
0.7155267 -0.32102537 1.3393233 4287861651
0.72058457 -0.32166094 1.3419749 4288190616
0.72527134 -0.32212526 1.3439119 4290756543
0.72924143 -0.32226816 1.3445082 4294638330
0.73225582 -0.32198945 1.3433454 4294967295
0.73732042 -0.32261053 1.3459365 4290953922
0.74339062 -0.32366329 1.3503288 4286019447
0.74834591 -0.32422274 1.3526628 4282861383
0.75606263 -0.32596731 1.3599411 4282269246
0.7657156 -0.3285256 1.3706144 4282203453
0.99681747 -0.42561126 1.7756574 4282203453
0.99833804 -0.42421007 1.7698116 4282071867
1.0055932 -0.42524734 1.774139 4281940281
1.0114869 -0.42570177 1.776035 4282006074
1.0151689 -0.42522535 1.7740475 4282006074
1.0176871 -0.42426839 1.7700548 4282071867
1.015714 -0.42145675 1.7583249 4282137660
1.0146383 -0.41904205 1.7482506 4282269246
1.0074507 -0.4141373 1.727788 4282400832
0.99578035 -0.40744391 1.6998628 4282532418
0.9975403 -0.4062821 1.6950157 4282532418
1.0074542 -0.40843672 1.7040049 4282664004
1.0121169 -0.40845242 1.7040704 4282795590
1.0260628 -0.41219735 1.7196944 4282861383
1.0356324 -0.4141582 1.727875 4282861383
1.038029 -0.41324574 1.7240683 4282466625
1.0404149 -0.4123373 1.7202781 4282071867
1.0445015 -0.412108 1.7193215 4282006074
1.0501189 -0.41248193 1.7208817 4282335039
1.05334 -0.41191548 1.7185185 4282729797
1.0560009 -0.411136 1.7152665 4282992969
1.0598555 -0.41082603 1.713973 4283058762
1.0576913 -0.40819591 1.7030003 4282927176
1.0492764 -0.4031868 1.6821022 4282927176
1.0420457 -0.39867419 1.6632755 4282992969
1.0124444 -0.38567868 1.609058 4282927176
0.94986641 -0.35721889 1.4903233 4282992969
0.9525463 -0.35670811 1.4881923 4283058762
0.96211052 -0.35876876 1.4967893 4283058762
0.97476733 -0.36196047 1.5101053 4283190348
0.97182882 -0.3593587 1.4992505 4283321934
0.9770959 -0.35980016 1.5010924 4283256141
1.0991687 -0.39487508 1.6474254 4283321934
1.1117923 -0.39779231 1.6595962 4283387727
1.1153734 -0.39746368 1.6582253 4283321934
0.9087888 -0.29203832 1.2183888 4282795590
0.90592444 -0.29006267 1.2101463 4282992969
0.9613778 -0.30670625 1.2795837 4282861383
0.96282911 -0.30606386 1.2769036 4282729797
0.97626734 -0.30922288 1.2900831 4282927176
1.0549998 -0.33296669 1.3891426 4282927176
1.0578794 -0.33150667 1.3830514 4282861383
1.0625213 -0.33178425 1.3842095 4282861383
1.063843 -0.33102679 1.3810494 4282729797
1.0648736 -0.3301844 1.377535 4282598211
1.061901 -0.32811099 1.3688846 4282598211
1.0572439 -0.32553333 1.3581306 4282598211
1.0606123 -0.32543612 1.3577249 4282729797
1.0571593 -0.32325378 1.3486202 4282861383
1.0560501 -0.32180062 1.3425577 4282927176
0.62944615 -0.42985043 1.8138773 4291809231
0.63403314 -0.42962351 1.8129199 4293717228
0.63537502 -0.42721811 1.8027694 4294967295
0.63704926 -0.42507124 1.7937101 4294967295
0.64650834 -0.42811197 1.8065414 4294967295
0.71106511 -0.31864899 1.344631 4286940549
0.71394658 -0.31830698 1.3431878 4289177511
0.71541822 -0.31734309 1.3391203 4289111718
0.7205283 -0.31799471 1.3418701 4288848546
0.72535968 -0.31851739 1.3440756 4290624957
0.72926044 -0.31862822 1.3445432 4293388263
0.73216993 -0.31830698 1.3431878 4294769916
0.73643219 -0.31857413 1.3443152 4292730333
0.74157965 -0.31921974 1.3470393 4287795858
0.7465784 -0.31979528 1.349468 4283979864
0.75286961 -0.32091612 1.3541977 4282532418
0.76111901 -0.32285672 1.3623866 4282203453
0.75871956 -0.32028326 1.3515273 4282071867
0.99177951 -0.4166525 1.7581848 4282006074
1.0045381 -0.41999212 1.7722775 4282006074
1.0123361 -0.42123595 1.7775261 4282071867
1.0177858 -0.42149529 1.7786205 4282269246
1.0248351 -0.42241162 1.7824873 4282466625
1.0253613 -0.42064333 1.7750254 4282664004
1.0238047 -0.41804108 1.7640444 4282729797
1.0033343 -0.40777606 1.7207283 4282795590
0.97416937 -0.39408889 1.6629713 4282861383
0.984231 -0.39632344 1.6724007 4282795590
1.0063723 -0.40337935 1.7021749 4282927176
1.012977 -0.40417171 1.7055185 4282992969
1.0274805 -0.40809411 1.7220703 4282992969
1.0348456 -0.40915862 1.7265623 4282992969
1.0374907 -0.40835571 1.7231743 4282598211
1.039871 -0.40745625 1.7193787 4282269246
1.0445247 -0.40745169 1.7193594 4282203453
1.0498031 -0.40768981 1.7203642 4282532418
1.0513585 -0.40648621 1.7152855 4282795590
1.0537497 -0.40561515 1.7116096 4283058762
1.0576446 -0.40532789 1.7103975 4283058762
1.0559692 -0.4029178 1.7002275 4283058762
1.0487626 -0.39842734 1.6812786 4283190348
1.0414126 -0.39392146 1.6622648 4283124555
1.016657 -0.38289917 1.6157529 4283058762
0.94840777 -0.35263261 1.4880346 4283124555
0.94997597 -0.35171831 1.4841764 4283256141
0.95775574 -0.35310179 1.4900144 4283190348
0.97062767 -0.35634309 1.503692 4283256141
0.97044498 -0.35478461 1.4971156 4283321934
0.97725248 -0.35578406 1.501333 4283190348
0.98931712 -0.35868117 1.5135583 4283256141
1.0224055 -0.3691451 1.5577137 4283190348
1.0421568 -0.37472719 1.581269 4283190348
1.0935972 -0.39161125 1.6525161 4283256141
1.104001 -0.39372247 1.661425 4283256141
1.0971749 -0.38969666 1.6444371 4283190348
1.112569 -0.39356381 1.6607555 4283256141
0.9779011 -0.30733591 1.2968922 4282598211
0.98489124 -0.30842286 1.301479 4282532418
1.0504162 -0.32776704 1.3831072 4282269246
1.0493658 -0.3262735 1.3768048 4282335039
1.0558904 -0.32713759 1.380451 4282532418
1.0635263 -0.32833853 1.3855188 4282598211
1.0647515 -0.3275589 1.3822289 4282664004
1.0665753 -0.32696822 1.3797363 4282664004
1.0663259 -0.32574829 1.3745885 4282598211
1.0600525 -0.32270312 1.3617384 4282598211
1.0668778 -0.32365271 1.3657457 4282729797
1.061713 -0.32097095 1.3544291 4282927176
0.62907815 -0.42138514 1.7987516 4294967295
0.71262437 -0.31569117 1.3475796 4288519581
0.71515858 -0.31519648 1.3454679 4288716960
0.71537173 -0.31368905 1.3390334 4288585374
0.72055328 -0.31436449 1.3419166 4288585374
0.72524607 -0.31482098 1.3438652 4289374890
0.72882926 -0.31479365 1.3437483 4291019715
0.73134363 -0.31430721 1.3416719 4292993505
0.73521078 -0.3144041 1.3420856 4293322470
0.74025381 -0.31500041 1.344631 4290888129
0.74572551 -0.31577238 1.3479264 4286545791
0.7519604 -0.31685844 1.3525622 4282927176
0.76201236 -0.31953457 1.3639858 4282335039
0.76048857 -0.31735417 1.3546784 4282335039
0.97018605 -0.40291411 1.7199049 4282335039
0.99119413 -0.40966803 1.7487352 4282335039
1.0127963 -0.41660199 1.778334 4282532418
1.0162361 -0.4160347 1.7759125 4282729797
1.0299609 -0.41966349 1.7914025 4282795590
1.0317659 -0.41842422 1.7861125 4282927176
0.97453278 -0.39153546 1.6713336 4282927176
0.95756549 -0.38293654 1.6346276 4282992969
0.96455657 -0.38395384 1.63897 4283058762
1.0084102 -0.39956805 1.705622 4282992969
1.0162234 -0.40082431 1.7109845 4282927176
1.0281622 -0.403689 1.7232128 4282861383
1.032769 -0.40366203 1.7230976 4282861383
1.0353378 -0.40284234 1.7195985 4282861383
1.0378331 -0.40200147 1.7160094 4282795590
1.0434916 -0.40238792 1.7176588 4282861383
1.0490092 -0.40271688 1.7190632 4282992969
1.0495646 -0.40114632 1.7123588 4283058762
1.051299 -0.40003824 1.707629 4283256141
1.0545809 -0.39952618 1.7054431 4283190348
1.0537089 -0.39745176 1.6965882 4283256141
1.0479591 -0.39356348 1.6799904 4283256141
1.0446484 -0.39062098 1.6674297 4283124555
1.035146 -0.38539857 1.6451371 4283321934
0.94668514 -0.34796172 1.4853318 4283256141
0.94822311 -0.34704953 1.4814379 4283256141
0.95556772 -0.3482613 1.4866105 4283190348
0.96931207 -0.35178545 1.5016539 4283124555
0.97142822 -0.35107762 1.4986326 4283124555
0.98086369 -0.35300991 1.5068808 4283190348
0.9850052 -0.30602399 1.3063136 4281742902
0.99147451 -0.30692938 1.3101785 4281479730
0.99713433 -0.30757859 1.3129498 4281282351
1.0485623 -0.32229072 1.3757508 4281479730
1.0568109 -0.32367367 1.3816543 4281940281
1.065944 -0.32531685 1.3886683 4282335039
1.0668458 -0.32444519 1.3849475 4282466625
1.0694538 -0.32409668 1.3834599 4282532418
1.0710841 -0.32345536 1.3807223 4282598211
1.0716999 -0.32251319 1.3767006 4282664004
1.0769608 -0.32297066 1.3786533 4282729797
1.0715542 -0.32023686 1.3669837 4282729797
1.0734311 -0.31969115 1.3646543 4282795590
0.71181554 -0.31491214 1.3600069 4285032552
0.7134372 -0.31400171 1.356075 4288453788
0.71474952 -0.3129651 1.3515983 4290888129
0.71716261 -0.31241864 1.3492383 4290098613
0.71648592 -0.31053859 1.3411189 4290230199
0.72145534 -0.31111228 1.3435965 4290559164
0.7260226 -0.31150764 1.345304 4291085508
0.72995579 -0.31162837 1.3458253 4292138196
0.73210949 -0.31099197 1.3430769 4293454056
0.73577631 -0.31100145 1.3431178 4294572537
0.74005097 -0.31126651 1.3442626 4294111986
0.74622661 -0.31232458 1.3488321 4288519581
0.75485051 -0.31439206 1.3577608 4283058762
0.77374041 -0.32069439 1.3849785 4282795590
0.77956283 -0.32154587 1.3886559 4282664004
0.8073675 -0.33141258 1.431267 4282598211
1.0110861 -0.41108125 1.7753311 4282795590
1.0108408 -0.40903267 1.766484 4282861383
1.0369318 -0.41761002 1.8035269 4282861383
1.0400838 -0.4169119 1.8005117 4282992969
1.0373138 -0.41385755 1.7873211 4283058762
1.02615 -0.40188766 1.7356268 4282927176
1.0280656 -0.40079841 1.7309227 4282861383
1.0366809 -0.40231913 1.7374903 4282795590
1.036003 -0.40023583 1.7284933 4282861383
1.0378841 -0.39915556 1.7238277 4283058762
1.0390213 -0.39780006 1.7179739 4283058762
1.0450885 -0.39833584 1.7202877 4283058762
1.0502884 -0.3985377 1.7211593 4283124555
1.0492738 -0.39639011 1.7118847 4283256141
1.0499302 -0.39488986 1.7054056 4283387727
1.0528905 -0.39426559 1.7027096 4283256141
1.0537609 -0.39286754 1.6966718 4283256141
1.0516169 -0.39036274 1.6858543 4283321934
1.0516831 -0.38869649 1.6786582 4283190348
0.94516814 -0.34338027 1.4829518 4283256141
0.94775069 -0.34285882 1.4806998 4283256141
0.95428264 -0.34376454 1.4846113 4283190348
0.96807992 -0.34726876 1.4997451 4283124555
0.97172987 -0.34711891 1.4990978 4283124555
0.97186172 -0.30280182 1.3077062 4281742902
0.94814587 -0.29433805 1.2711538 4281413937
1.0036175 -0.30930799 1.3358042 4280953386
1.0081615 -0.30959031 1.3370235 4280690214
1.0154746 -0.31071788 1.3418932 4280558628
1.0272769 -0.31320614 1.3526392 4280558628
1.0455053 -0.31762892 1.3717397 4280887593
1.0620422 -0.32150835 1.3884938 4281545523
1.0704451 -0.32290655 1.3945323 4282137660
1.0714544 -0.32207254 1.3909304 4282335039
1.0750256 -0.32201168 1.3906677 4282532418
1.0773013 -0.32156461 1.388737 4282598211
1.0800942 -0.32127452 1.387484 4282664004
1.084492 -0.32146209 1.3882941 4282664004
0.71236593 -0.31308562 1.3681514 4283256141
0.71190953 -0.31126294 1.3601865 4286348412
0.71362823 -0.31040516 1.356438 4291677645
0.71537822 -0.30956969 1.3527873 4294572537
0.71797431 -0.30910704 1.3507655 4292598747
0.71691835 -0.30708474 1.3419282 4292203989
0.72168124 -0.30756277 1.3440171 4292138196
0.72646844 -0.30804628 1.34613 4292072403
0.73046786 -0.30819255 1.3467693 4292335575
0.73225266 -0.30740771 1.3433396 4293388263
0.7362529 -0.30755606 1.3439878 4294967295
0.74066293 -0.30787331 1.3453742 4293454056
0.74727333 -0.30909759 1.3507241 4287466893
0.75679851 -0.31150967 1.3612647 4283256141
0.77939069 -0.31925076 1.3950925 4282927176
0.79081059 -0.32236284 1.4086919 4282861383
0.81126297 -0.32910919 1.4381727 4282927176
1.0455823 -0.41615933 1.8185728 4282992969
1.0439024 -0.41353902 1.8071222 4282927176
1.0373627 -0.40151805 1.7545919 4282861383
1.0387274 -0.40020952 1.7488737 4282927176
1.0425352 -0.39984983 1.7473021 4282927176
1.0373429 -0.39605728 1.7307289 4282992969
1.0395074 -0.39509499 1.7265238 4283190348
1.0405596 -0.39372054 1.7205175 4283058762
1.0505493 -0.39572489 1.7292764 4283058762
1.0537208 -0.3951546 1.7267843 4283124555
1.0474408 -0.39106062 1.708894 4283256141
1.045391 -0.38857511 1.6980326 4283321934
1.0483227 -0.38795489 1.6953224 4283387727
1.0515214 -0.38743857 1.693066 4283387727
1.0490537 -0.38484791 1.6817452 4283321934
1.0454943 -0.38188103 1.6687801 4283256141
0.94154626 -0.33950129 1.4835851 4283190348
0.94399965 -0.33893681 1.4811184 4283190348
0.94701129 -0.33857667 1.4795446 4283124555
0.95409024 -0.33966759 1.4843118 4283190348
0.97899497 -0.30255455 1.3221318 4280953386
0.98374379 -0.30291212 1.3236943 4280756007
1.0030011 -0.3066029 1.3398226 4280492835
1.0078948 -0.30698612 1.3414972 4280427042
1.0114295 -0.30695415 1.3413575 4280361249
1.0163925 -0.30735427 1.343106 4280295456
1.0245465 -0.30871311 1.3490441 4280361249
1.0393248 -0.31205112 1.3636308 4280756007
1.0630833 -0.31805217 1.3898547 4281413937
1.0724531 -0.31972119 1.3971483 4282071867
1.0733526 -0.3188622 1.3933945 4282466625
1.0773375 -0.31892258 1.3936584 4282532418
1.0792409 -0.31836852 1.3912371 4282466625
1.0829331 -0.31834415 1.3911307 4282598211
1.087158 -0.31847602 1.3917069 4282598211
0.71334714 -0.30819327 1.3629333 4285558896
0.71501827 -0.30732197 1.3590801 4290032820
0.71677727 -0.30649722 1.3554327 4292664540
0.72005737 -0.30632797 1.3546844 4290888129
0.71729201 -0.30360168 1.3426278 4290098613
0.72223389 -0.30414861 1.3450464 4289638062
0.72696549 -0.30460188 1.347051 4289177511
0.73089772 -0.30471742 1.347562 4289374890
0.73247862 -0.30385637 1.3437541 4291217094
0.73710215 -0.30425981 1.3455383 4293783021
0.74176711 -0.30467623 1.3473799 4289967027
0.74807751 -0.30576116 1.3521777 4285427310
0.75701523 -0.30790406 1.3616545 4283256141
0.77801764 -0.31490952 1.3926349 4282992969
0.78792369 -0.31737754 1.4035493 4282927176
0.79942387 -0.32046092 1.4171849 4282992969
0.80694312 -0.32192653 1.4236665 4282927176
1.0216715 -0.40372604 1.7854111 4282927176
1.0665338 -0.41946489 1.8550135 4282992969
1.0498191 -0.41095155 1.8173647 4283058762
1.0470572 -0.39682239 1.7548809 4282992969
1.0388844 -0.39194259 1.7333008 4283058762
1.0427573 -0.39163071 1.7319216 4283256141
1.0453017 -0.39082494 1.728358 4283124555
1.058192 -0.39387736 1.7418569 4283124555
1.0549052 -0.39090794 1.7287252 4283190348
1.042381 -0.38455698 1.7006391 4283256141
1.0359613 -0.38050407 1.6827158 4283387727
1.0346413 -0.37835166 1.6731972 4283321934
1.0402682 -0.37874734 1.674947 4283321934
1.0340383 -0.37484151 1.6576741 4283321934
1.026791 -0.37060222 1.6389265 4283256141
0.94325751 -0.33608541 1.4862816 4283190348
0.94544935 -0.3354322 1.483393 4283124555
0.94897813 -0.33525684 1.4826175 4283058762
0.9879874 -0.30061156 1.3294045 4280427042
1.0057344 -0.30379301 1.3434739 4280361249
1.009766 -0.30390924 1.3439878 4280295456
1.0129416 -0.30376789 1.3433629 4280295456
1.0173208 -0.30398721 1.3443328 4280295456
1.0240593 -0.3049075 1.3484025 4280361249
1.0367179 -0.30757755 1.3602105 4280690214
1.0662667 -0.31522197 1.3940166 4281413937
1.0761986 -0.31703347 1.4020277 4282071867
1.0764631 -0.31599438 1.3974324 4282466625
1.0801524 -0.31596437 1.3972998 4282598211
1.0809973 -0.31510547 1.3935014 4282532418
1.0844215 -0.31500179 1.3930428 4282466625
1.0885057 -0.31508982 1.3934323 4282532418
0.715846 -0.30398566 1.3606535 4286545791
0.71753871 -0.30314103 1.3568728 4288190616
0.72099578 -0.30304652 1.3564498 4287137928
0.71745718 -0.30002755 1.3429368 4286677377
0.72189462 -0.30035773 1.3444146 4286282619
0.72652853 -0.30076587 1.3462415 4286085240
0.73023236 -0.30078679 1.3463352 4287335307
0.73149288 -0.29980612 1.3419456 4290032820
0.73660195 -0.30040473 1.3446251 4291546059
0.74262488 -0.3013683 1.348938 4287730065
0.75041145 -0.3030346 1.3563964 4284440415
0.7595917 -0.30524468 1.3662889 4283190348
0.77609807 -0.31036302 1.3891988 4283058762
0.7829147 -0.31157568 1.3946267 4282992969
0.79275078 -0.31397253 1.4053552 4282927176
0.80190533 -0.3160778 1.4147785 4282927176
1.0433131 -0.38889015 1.7406896 4283124555
1.0504737 -0.38979453 1.7447379 4283256141
1.0565975 -0.39030784 1.7470354 4283256141
1.0765431 -0.39589953 1.772064 4283190348
1.055348 -0.38637924 1.7294508 4283190348
1.0360709 -0.37764233 1.6903441 4283256141
1.0268939 -0.37264767 1.6679876 4283321934
1.0271742 -0.37111372 1.6611216 4283190348
1.0347006 -0.37219977 1.6659828 4283256141
1.0308484 -0.369201 1.6525602 4283256141
0.99242628 -0.29833868 1.3353773 4280295456
1.0072403 -0.30059698 1.3454854 4280295456
1.0105833 -0.3005054 1.3450756 4280295456
1.0136244 -0.30032507 1.3442684 4280295456
1.0182596 -0.30061662 1.3455734 4280361249
1.0234478 -0.30106875 1.3475972 4280427042
1.0323613 -0.30260965 1.3544943 4280756007
1.0648068 -0.31101298 1.3921081 4281479730
1.0768287 -0.31341252 1.4028485 4282137660
1.0769547 -0.31234512 1.3980707 4282335039
1.0805237 -0.31228018 1.3977801 4282532418
1.0824906 -0.31175432 1.3954263 4282598211
1.0867479 -0.31188947 1.3960313 4282400832
1.0919514 -0.31229427 1.3978431 4282598211
0.71818864 -0.30127633 1.3651062 4286151033
0.71846902 -0.29984745 1.358632 4287006342
0.72108126 -0.29940137 1.3566107 4285756275
0.71805924 -0.29663232 1.3440639 4285229931
0.72179735 -0.29666972 1.3442333 4285229931
0.72574466 -0.29679233 1.3447889 4285624689
0.72875959 -0.29653433 1.3436198 4287795858
0.72941864 -0.29532504 1.3381405 4290888129
0.73436898 -0.29585657 1.3405489 4291019715
0.74062431 -0.29690602 1.345304 4286611584
0.75287271 -0.30033591 1.3608452 4283914071
0.7657792 -0.30399361 1.3774184 4283124555
0.77832985 -0.30747515 1.3931936 4282992969
0.78433025 -0.30834794 1.3971483 4282992969
0.79378659 -0.31056443 1.4071914 4282927176
0.80097419 -0.31187633 1.4131356 4282927176
0.81026125 -0.31398931 1.4227097 4282992969
1.0633601 -0.38978392 1.7661409 4283190348
1.0813435 -0.39459753 1.7879518 4283190348
1.0282605 -0.3702434 1.6776015 4283190348
1.0203801 -0.36578661 1.6574074 4283124555
1.0201731 -0.36410758 1.6497996 4283190348
0.99536324 -0.29558736 1.3393291 4280295456
1.0021325 -0.29651496 1.3435322 4280295456
1.0080389 -0.29718152 1.3465523 4280295456
1.0111597 -0.29702491 1.3458428 4280229663
1.014423 -0.29691118 1.3453275 4280295456
1.01932 -0.29727474 1.3469747 4280361249
1.0233541 -0.29738492 1.3474739 4280427042
1.0298207 -0.29819864 1.351161 4280821800
1.0560415 -0.30470642 1.3806484 4281479730
1.0759497 -0.30935326 1.4017035 4282071867
1.0769694 -0.30855572 1.3980898 4282335039
1.0806067 -0.30851108 1.3978875 4282400832
1.0830823 -0.30813622 1.396189 4282400832
1.0876372 -0.30835348 1.3971735 4282400832
1.0938857 -0.30904776 1.4003192 4282598211
1.1004272 -0.30981973 1.4038169 4282598211
1.1032292 -0.30953711 1.4025366 4282466625
1.1017808 -0.30806804 1.39588 4282466625
0.71989298 -0.29674783 1.3613245 4287137928
0.72208273 -0.29613096 1.3584948 4286611584
0.7202484 -0.2938785 1.3481615 4284966759
0.72274965 -0.29340881 1.3460069 4285032552
0.72560894 -0.2930885 1.3445375 4286019447
0.72843349 -0.29275739 1.3430185 4288322202
0.72917879 -0.29159814 1.3377005 4289769648
0.73360223 -0.29191396 1.3391492 4288453788
0.74039871 -0.29316628 1.3448942 4285229931
0.75619853 -0.29795378 1.3668568 4283519313
0.76860136 -0.30136257 1.3824947 4283058762
0.77873343 -0.30385226 1.393916 4282992969
0.78451812 -0.3046298 1.397483 4283058762
0.7942639 -0.30693051 1.4080374 4282992969
0.80076915 -0.30796298 1.4127738 4283124555
1.0919091 -0.39532778 1.813558 4283124555
1.1033943 -0.39769372 1.8244117 4283190348
1.1130552 -0.39938393 1.8321655 4283124555
1.0185452 -0.3606396 1.6544268 4283124555
1.0168245 -0.35845053 1.6443844 4283190348
1.0060066 -0.29400158 1.3487262 4280295456
1.0107512 -0.29431748 1.3501754 4280229663
1.0132818 -0.29398876 1.3486674 4280295456
1.0164758 -0.29385415 1.3480499 4280295456
1.0208726 -0.29406703 1.3490264 4280295456
1.0235236 -0.29377729 1.3476971 4280427042
1.0287235 -0.29421851 1.3497214 4280821800
1.0443841 -0.29763791 1.3654077 4281479730
1.0736954 -0.30490965 1.3987668 4282071867
1.0744132 -0.3040387 1.3947713 4282335039
1.078125 -0.30401817 1.394677 4282466625
1.0815287 -0.30391118 1.3941863 4282466625
1.0863407 -0.30419931 1.3955081 4282466625
1.093643 -0.30518034 1.4000084 4282466625
1.1009271 -0.30614954 1.4044548 4282466625
1.1031792 -0.30571756 1.4024731 4282466625
1.1021889 -0.30439311 1.3963971 4282466625
1.1025908 -0.3034609 1.3921206 4282532418
0.72353685 -0.2975913 1.3824019 4283321934
0.72044766 -0.29479238 1.3694001 4285493103
0.7210362 -0.29351935 1.3634865 4287532686
0.72354549 -0.29303721 1.3612468 4286611584
0.72281462 -0.29125434 1.3529649 4283848278
0.72423506 -0.29035199 1.3487732 4283716692
0.72604787 -0.28961524 1.3453507 4284637794
0.72885144 -0.28927907 1.3437892 4285295724
0.73017728 -0.28836268 1.3395323 4285164138
0.73442316 -0.28860283 1.3406478 4284308829
0.74367321 -0.29079741 1.3508422 4283716692
0.76121396 -0.2961964 1.3759223 4283190348
0.77026534 -0.29825556 1.3854877 4283058762
0.77878964 -0.30009159 1.3940166 4283058762
0.78366429 -0.30051038 1.395962 4283124555
0.79333872 -0.30275685 1.4063975 4283190348
0.79916197 -0.3035191 1.4099385 4283256141
1.1283102 -0.39981803 1.8572762 4282927176
1.0128129 -0.29124671 1.3529294 4280229663
1.0146587 -0.29072368 1.3504999 4280295456
1.017825 -0.29058152 1.3498393 4280229663
1.0217555 -0.29065767 1.3501931 4280229663
1.0230374 -0.28998253 1.347057 4280427042
1.0275837 -0.29023421 1.3482261 4280821800
1.0388271 -0.29236895 1.3581426 4281413937
1.0730641 -0.30093712 1.3979443 4282006074
