# .PCD v0.7 - Point Cloud Data file format
VERSION 0.7
FIELDS x y z intensity
SIZE 4 4 4 4
TYPE F F F F
COUNT 1 1 1 1
WIDTH 1324
HEIGHT 1
VIEWPOINT 0 0 0 1 0 0 0
POINTS 1324
DATA ascii
0.180171 0.4613642 2.7625 0.02929688
0.1872567 0.462408 2.76875 0.02636719
0.1961225 0.4676271 2.8 0.03125
0.2028737 0.4676271 2.8 0.03125
0.2096237 0.4676271 2.8 0.03125
0.2163724 0.4676271 2.8 0.0390625
0.22312 0.4676271 2.8 0.046875
0.2308924 0.4697147 2.8125 0.046875
0.2408362 0.4759775 2.85 0.0390625
0.2455273 0.4718023 2.825 0.046875
0.2512131 0.4697147 2.8125 0.0390625
0.2614235 0.4759775 2.85 0.0390625
0.2635763 0.4676271 2.8 0.03125
0.2715206 0.4697147 2.8125 0.03125
0.2869444 0.484328 2.9 0.0234375
0.2939193 0.484328 2.9 0.0234375
0.2944077 0.4738899 2.8375 0.02832031
0.3078638 0.484328 2.9 0.0234375
0.3094053 0.4759775 2.85 0.02246094
0.3141723 0.4728461 2.83125 0.02148438
0.3216816 0.4738899 2.8375 0.02050781
0.3277719 0.4728461 2.83125 0.0234375
0.3419544 0.4832842 2.89375 0.02246094
0.3473923 0.4811966 2.88125 0.02441406
0.356611 0.484328 2.9 0.0234375
0.3572984 0.4759775 2.85 0.0234375
0.3641323 0.4759775 2.85 0.0234375
0.370964 0.4759775 2.85 0.02148438
0.3827645 0.4822404 2.8875 0.0234375
0.3905251 0.4832842 2.89375 0.02441406
0.397455 0.4832842 2.89375 0.02734375
0.400889 0.479109 2.86875 0.02539062
0.4121961 0.484328 2.9 0.0234375
0.4480396 0.5177299 3.1 0.0234375
0.4260691 0.484328 2.9 0.0234375
0.4348683 0.4864157 2.9125 0.02441406
0.4437247 0.4885033 2.925 0.0234375
0.4507121 0.4885033 2.925 0.02441406
0.4616088 0.4926785 2.95 0.02539062
0.4656719 0.4895471 2.93125 0.02441406
0.4726662 0.4895471 2.93125 0.02539062
0.4847713 0.4947661 2.9625 0.02929688
0.4866464 0.4895471 2.93125 0.02539062
0.5052101 0.501029 3 0.03125
0.5038176 0.4926785 2.95 0.02441406
0.5140892 0.4958099 2.96875 0.02441406
0.517864 0.4926785 2.95 0.02148438
0.5282189 0.4958099 2.96875 0.01660156
0.5318984 0.4926785 2.95 0.01757812
0.5423363 0.4958099 2.96875 0.01953125
0.5505468 0.4968538 2.975 0.01464844
0.5576124 0.4968538 2.975 0.01660156
0.5634885 0.4958099 2.96875 0.01464844
0.5777394 0.5020728 3.00625 0.01464844
0.5873011 0.5041604 3.01875 0.015625
0.589534 0.4999852 2.99375 0.01464844
0.6016096 0.5041604 3.01875 0.01367188
0.610019 0.5052043 3.025 0.009765625
0.614629 0.5031166 3.0125 0.01269531
0.6204661 0.5020728 3.00625 0.01269531
0.6288795 0.5031166 3.0125 0.01269531
0.6386383 0.5052043 3.025 0.01269531
0.6391125 0.4999852 2.99375 0.009765625
0.6475295 0.501029 3 0.008789062
0.6600636 0.5052043 3.025 0.009765625
0.6727118 0.5093795 3.05 0.009765625
0.6701483 0.5020728 3.00625 0.01074219
0.6983499 0.5177299 3.1 0.01074219
0.6843086 0.5020728 3.00625 0.01269531
0.6956949 0.5052043 3.025 0.01171875
0.7086175 0.5093795 3.05 0.01074219
0.724587 0.5156423 3.0875 0.01171875
0.7348027 0.5177299 3.1 0.01171875
0.7420806 0.5177299 3.1 0.006835938
0.7372678 0.5093795 3.05 0.009765625
0.7596742 0.5198176 3.1125 0.008789062
0.7700484 0.5219052 3.125 0.009765625
0.7587104 0.5093795 3.05 0.01074219
0.7548636 0.5020728 3.00625 0.01074219
0.7824873 0.5156423 3.0875 0.01074219
0.7929019 0.5177299 3.1 0.01074219
0.7872383 0.5093795 3.05 0.009765625
0.8073812 0.5177299 3.1 0.0078125
0.8146138 0.5177299 3.1 0.008789062
0.8218416 0.5177299 3.1 0.009765625
0.8290646 0.5177299 3.1 0.005859375
0.8396549 0.5198176 3.1125 0.008789062
0.8434961 0.5177299 3.1 0.0078125
0.8507044 0.5177299 3.1 0.005859375
0.8786637 0.5302557 3.175 0.008789062
0 0 0 0
0.8793342 0.5219052 3.125 0.0078125
0.8936731 0.5260804 3.15 0.006835938
0.8938215 0.5219052 3.125 0.009765625
0 0 0 0
0 0 0 0
0 0 0 0
0 0 0 0
0 0 0 0
0.9334078 0.5198176 3.1125 0.0078125
0.9670246 0.5344309 3.2 0.006835938
-0.7155716 0.4009219 2.35 0.01171875
-0.7101587 0.4009219 2.35 0.009765625
-0.7047417 0.4009219 2.35 0.008789062
-0.70676 0.405187 2.375 0.01074219
-0.701277 0.405187 2.375 0.01074219
-0.6957899 0.405187 2.375 0.01269531
-0.6939319 0.4073196 2.3875 0.01171875
-0.6848035 0.405187 2.375 0.01074219
-0.6793043 0.405187 2.375 0.01171875
-0.6667085 0.4009219 2.35 0.01074219
-0.6612594 0.4009219 2.35 0.01074219
-0.662783 0.405187 2.375 0.01464844
-0.6503495 0.4009219 2.35 0.01074219
-0.632883 0.3934579 2.30625 0.01269531
-0.6479274 0.4062533 2.38125 0.01367188
-0.6390145 0.4041207 2.36875 0.01464844
-0.6217985 0.3966568 2.325 0.01171875
-0.6230089 0.4009219 2.35 0.01269531
-0.6175297 0.4009219 2.35 0.01171875
-0.612047 0.4009219 2.35 0.01269531
-0.6130134 0.405187 2.375 0.01367188
-0.6010708 0.4009219 2.35 0.01367188
-0.6082492 0.4094521 2.4 0.015625
-0.5994967 0.4073196 2.3875 0.01464844
-0.5892444 0.4041207 2.36875 0.015625
-0.5698358 0.3945242 2.3125 0.01464844
-0.5735692 0.4009219 2.35 0.01464844
-0.5620156 0.3966568 2.325 0.01367188
-0.5685295 0.405187 2.375 0.015625
-0.5673981 0.4083858 2.39375 0.01660156
-0.5588414 0.4062533 2.38125 0.01660156
-0.545984 0.4009219 2.35 0.01855469
-0.5519563 0.4094521 2.4 0.015625
-0.5391954 0.4041207 2.36875 0.01660156
-0.53925 0.4083858 2.39375 0.01855469
-0.5294311 0.405187 2.375 0.01855469
-0.5252115 0.4062533 2.38125 0.01953125
-0.5236868 0.4094521 2.4 0.01855469
-0.5153256 0.4073196 2.3875 0.01953125
-0.5056861 0.4041207 2.36875 0.01855469
-0.5014102 0.405187 2.375 0.01953125
-0.4997113 0.4083858 2.39375 0.01855469
-0.4979208 0.4115847 2.4125 0.02148438
-0.4883877 0.4083858 2.39375 0.01953125
-0.4776802 0.4041207 2.36875 0.01953125
-0.4782983 0.4094521 2.4 0.02050781
-0.4726118 0.4094521 2.4 0.02148438
-0.4644907 0.4073196 2.3875 0.015625
-0.4612306 0.4094521 2.4 0.02148438
-0.451977 0.4062533 2.38125 0.02050781
-0.45101 0.4105184 2.40625 0.02050781
-0.4441386 0.4094521 2.4 0.02050781
-0.4384361 0.4094521 2.4 0.02148438
-0.4304771 0.4073196 2.3875 0.02148438
-0.4281353 0.4105184 2.40625 0.0234375
-0.420216 0.4083858 2.39375 0.01953125
-0.4156005 0.4094521 2.4 0.02246094
-0.4141551 0.4137172 2.425 0.02050781
-0.4041681 0.4094521 2.4 0.02050781
-0.396373 0.4073196 2.3875 0.01855469
-0.3968171 0.4137172 2.425 0.01757812
-0.3859939 0.4083858 2.39375 0.01855469
-0.3832608 0.4115847 2.4125 0.01855469
-0.3775021 0.4115847 2.4125 0.01660156
-0.3736673 0.4137172 2.425 0.01855469
-0.3650299 0.4105184 2.40625 0.01953125
-0.3583464 0.4094521 2.4 0.02050781
-0.3553637 0.412651 2.41875 0.02539062
-0.3495793 0.412651 2.41875 0.02832031
-0.3446812 0.4137172 2.425 0.02929688
-0.3423714 0.4179824 2.45 0.0390625
-0.3365062 0.4179824 2.45 0.03125
-0.3373867 0.4265126 2.5 0.0234375
-0.3247699 0.4179824 2.45 0.03125
-0.3156448 0.4137172 2.425 0.02832031
-0.3090333 0.412651 2.41875 0.02929688
-0.3134197 0.4265126 2.5 0.0234375
-0.3074232 0.4265126 2.5 0.0234375
-0.2938894 0.4158498 2.4375 0.02832031
-0.2865623 0.4137172 2.425 0.02832031
-0.2821877 0.4158498 2.4375 0.02539062
-0.2834199 0.4265126 2.5 0.03125
-0.2774148 0.4265126 2.5 0.03125
-0.2768363 0.4350429 2.55 0.03125
-0.2653999 0.4265126 2.5 0.0234375
-0.25939 0.4265126 2.5 0.0390625
-0.2533787 0.4265126 2.5 0.03125
-0.2473659 0.4265126 2.5 0.0234375
-0.2413516 0.4265126 2.5 0.03125
-0.2400427 0.4350429 2.55 0.03125
-0.2339053 0.4350429 2.55 0.0390625
-0.2233005 0.4265126 2.5 0.03125
-0.2172808 0.4265126 2.5 0.0390625
-0.2112598 0.4265126 2.5 0.0390625
-0.2093424 0.4350429 2.55 0.0390625
-0.2031985 0.4350429 2.55 0.0390625
-0.1970535 0.4350429 2.55 0.0390625
-0.1909073 0.4350429 2.55 0.0390625
-0.18476 0.4350429 2.55 0.03125
-0.1742338 0.4243801 2.4875 0.03320312
-0.1724621 0.4350429 2.55 0.03125
-0.1663117 0.4350429 2.55 0.03125
-0.1570198 0.4265126 2.5 0.03125
-0.1570276 0.4435731 2.6 0.03125
-0.1464051 0.4307778 2.525 0.02832031
-0.1389221 0.4265126 2.5 0.03222656
-0.1325556 0.4254464 2.49375 0.02929688
-0.1268528 0.4265126 2.5 0.0234375
-0.1232333 0.4350429 2.55 0.03125
-0.1193717 0.4435731 2.6 0.0390625
-0.1130931 0.4435731 2.6 0.0390625
-0.1063002 0.4414406 2.5875 0.0390625
-0.1005338 0.4435731 2.6 0.0390625
-0.0942533 0.4435731 2.6 0.0390625
-0.08628046 0.4350429 2.55 0.03125
-0.08129791 0.4414406 2.5875 0.0390625
-0.07504605 0.4414406 2.5875 0.0390625
-0.07045544 0.4521034 2.65 0.03125
-0.06284319 0.4435731 2.6 0.046875
-0.05628799 0.4414406 2.5875 0.0390625
-0.05051802 0.4457057 2.6125 0.0390625
-0.04399242 0.4435731 2.6 0.046875
-0.03788955 0.4457057 2.6125 0.0390625
-0.03127281 0.4414406 2.5875 0.046875
-0.02513933 0.4435731 2.6 0.0390625
-0.01885463 0.4435731 2.6 0.0390625
-0.01256981 0.4435731 2.6 0.03125
-0.006315141 0.4457057 2.6125 0.0390625
0 0.4435731 2.6 0.046875
0.006284925 0.4435731 2.6 0.0390625
0.01263024 0.4457057 2.6125 0.0390625
0.01921722 0.4521034 2.65 0.0390625
0.02610623 0.4606336 2.7 0.0390625
0.03157496 0.4457057 2.6125 0.03515625
0.03915858 0.4606336 2.7 0.03125
0.04483842 0.4521034 2.65 0.0390625
0.05051802 0.4457057 2.6125 0.0390625
0.05683184 0.4457057 2.6125 0.0390625
0.06344745 0.4478383 2.625 0.03808594
0.07311413 0.4691639 2.75 0.03125
0.07830893 0.4606336 2.7 0.0234375
0.0848326 0.4606336 2.7 0.0234375
0.089664 0.4521034 2.65 0.03222656
0.09493302 0.446772 2.61875 0.03515625
0.1063339 0.4691639 2.75 0.0390625
0.110922 0.4606336 2.7 0.03125
0.1174428 0.4606336 2.7 0.03125
0.1262585 0.4691639 2.75 0.0390625
0.1328987 0.4691639 2.75 0.03125
0.1414408 0.4755616 2.7875 0.0390625
0.1475055 0.473429 2.775 0.046875
0.1548981 0.4755616 2.7875 0.0390625
0.1594511 0.4691639 2.75 0.0390625
0.1660869 0.4691639 2.75 0.0390625
0.1758622 0.4776942 2.8 0.03125
0.1765023 0.4616999 2.70625 0.03222656
0.182607 0.4606336 2.7 0.0234375
0.1926203 0.4691639 2.75 0.03125
0.1992509 0.4691639 2.75 0.03125
0.2086879 0.4755616 2.7875 0.0390625
0.2154065 0.4755616 2.7875 0.0390625
0.22312 0.4776942 2.8 0.0390625
0.2308924 0.4798267 2.8125 0.0390625
0.236611 0.4776942 2.8 0.03125
0.2433545 0.4776942 2.8 0.0390625
0.2478636 0.473429 2.775 0.02734375
0.254544 0.473429 2.775 0.02441406
0.2623996 0.4755616 2.7875 0.02441406
0.2679003 0.473429 2.775 0.02441406
0.2721025 0.4691639 2.75 0.0234375
0.2837842 0.4776942 2.8 0.02636719
0.2905169 0.4776942 2.8 0.02832031
0.3078638 0.4947546 2.9 0.0234375
0.3032986 0.4766279 2.79375 0.02441406
0.3107046 0.4776942 2.8 0.02148438
0.3174303 0.4776942 2.8 0.0234375
0.3256012 0.4798267 2.8125 0.0234375
0.3323531 0.4798267 2.8125 0.02148438
0.349653 0.4947546 2.9 0.0234375
0.3466197 0.480893 2.81875 0.02148438
0.3533807 0.480893 2.81875 0.02050781
0.3617367 0.4830256 2.83125 0.02050781
0.3774721 0.4947546 2.9 0.0234375
0.3844215 0.4947546 2.9 0.0234375
0.3846209 0.4862244 2.85 0.02441406
0.3983134 0.4947546 2.9 0.0234375
0.392155 0.4787604 2.80625 0.02734375
0.4193029 0.5032849 2.95 0.03125
0.4191338 0.4947546 2.9 0.0234375
0.4260691 0.4947546 2.9 0.0234375
0.4283359 0.4894232 2.86875 0.02832031
0.4361396 0.4904895 2.875 0.02441406
0.4449337 0.4926221 2.8875 0.0234375
0.451829 0.4926221 2.8875 0.02246094
0.4507783 0.4840918 2.8375 0.0234375
0.4676271 0.4947546 2.9 0.0234375
0.4745441 0.4947546 2.9 0.0234375
0.4814583 0.4947546 2.9 0.02246094
0.4883697 0.4947546 2.9 0.02246094
0.4974131 0.4968872 2.9125 0.02246094
0.4978548 0.4904895 2.875 0.02148438
0.5101839 0.4958209 2.90625 0.01953125
0.5182105 0.4968872 2.9125 0.02148438
0.5285177 0.5000861 2.93125 0.02050781
0.534344 0.4990198 2.925 0.02050781
0.5459204 0.5032849 2.95 0.02050781
0.5447264 0.4958209 2.90625 0.02148438
0.5516255 0.4958209 2.90625 0.01953125
0.5597225 0.4968872 2.9125 0.01171875
0.5787895 0.5075501 2.975 0.01464844
0.5883033 0.5096826 2.9875 0.01464844
0.5928906 0.5075501 2.975 0.01269531
0.6049775 0.5118152 3 0.01464844
0.5942263 0.4968872 2.9125 0.01269531
0.6204661 0.5128815 3.00625 0.01171875
0.6314889 0.5160803 3.025 0.01074219
0.6228042 0.5032849 2.95 0.01171875
0.6404468 0.5118152 3 0.01074219
0.6529257 0.5160803 3.025 0.01269531
0.6546085 0.5118152 3 0.01074219
0.6671978 0.5160803 3.025 0.01074219
0.6687551 0.5118152 3 0.01074219
0.6786384 0.5139477 3.0125 0.01171875
0.6843086 0.5128815 3.00625 0.01171875
0.688508 0.5107489 2.99375 0.01074219
0.7086175 0.5203454 3.05 0.009765625
0.692318 0.5032849 2.95 0.01074219
0.7170253 0.5160803 3.025 0.01074219
0.7301115 0.5203454 3.05 0.008789062
0.7251814 0.5118152 3 0.01074219
0.7322161 0.5118152 3 0.009765625
0.7515672 0.5203454 3.05 0.005859375
0.7478272 0.5128815 3.00625 0.0078125
0.7721266 0.5246105 3.075 0.009765625
0.7634795 0.5139477 3.0125 0.009765625
0.7737187 0.5160803 3.025 0.0078125
0.793691 0.5246105 3.075 0.008789062
0.7813366 0.5118152 3 0.01074219
0.7883359 0.5118152 3 0.0078125
0.8019583 0.5160803 3.025 0.008789062
0.8156926 0.5203454 3.05 0.006835938
0.8227944 0.5203454 3.05 0.005859375
0.8298913 0.5203454 3.05 0.0078125
0.8266926 0.5139477 3.0125 0.008789062
0.8440706 0.5203454 3.05 0.006835938
0 0 0 0
0.8758169 0.5310082 3.1125 0.0078125
0 0 0 0
0.8830956 0.5267431 3.0875 0.008789062
0.897453 0.5310082 3.1125 0.008789062
0.9010215 0.5288756 3.1 0.005859375
0 0 0 0
0.9005873 0.5203454 3.05 0.005859375
0.937387 0.5374059 3.15 0.005859375
0.9296592 0.5288756 3.1 0.006835938
0.9368051 0.5288756 3.1 0.0078125
-0.6794125 0.3886797 2.23125 0.009765625
-0.7101587 0.4093657 2.35 0.009765625
-0.6897472 0.4006558 2.3 0.0078125
-0.6918809 0.4050108 2.325 0.01171875
-0.6938952 0.4093657 2.35 0.01171875
-0.6738176 0.4006558 2.3 0.01171875
-0.672133 0.4028333 2.3125 0.01171875
-0.6703866 0.4050108 2.325 0.01074219
-0.6614279 0.4028333 2.3125 0.009765625
-0.6525232 0.4006558 2.3 0.01171875
-0.668294 0.4137207 2.375 0.01269531
-0.6488297 0.4050108 2.325 0.01074219
-0.6365123 0.4006558 2.3 0.01074219
-0.6277376 0.3984783 2.2875 0.01074219
-0.6241191 0.3995671 2.29375 0.01367188
-0.6339563 0.4093657 2.35 0.01367188
-0.633499 0.4126319 2.36875 0.01367188
-0.6163812 0.4050108 2.325 0.01074219
-0.6027485 0.3995671 2.29375 0.01367188
-0.6055359 0.4050108 2.325 0.01464844
-0.5807496 0.3919459 2.25 0.01464844
-0.5754933 0.3919459 2.25 0.01171875
-0.5955774 0.4093657 2.35 0.009765625
-0.5900805 0.4093657 2.35 0.01367188
-0.5845801 0.4093657 2.35 0.01269531
-0.5682957 0.4017445 2.30625 0.01660156
-0.5674675 0.4050108 2.325 0.015625
-0.5725912 0.4126319 2.36875 0.01660156
-0.5565605 0.4050108 2.325 0.01660156
-0.551102 0.4050108 2.325 0.01757812
-0.5456405 0.4050108 2.325 0.01464844
-0.5532444 0.4148094 2.38125 0.01757812
-0.5404572 0.4093657 2.35 0.01660156
-0.5349273 0.4093657 2.35 0.015625
-0.5350261 0.4137207 2.375 0.01953125
-0.5154987 0.4028333 2.3125 0.01953125
-0.5141834 0.4060995 2.33125 0.01855469
-0.5073217 0.4050108 2.325 0.01855469
-0.5112786 0.4126319 2.36875 0.01757812
-0.5016833 0.4093657 2.35 0.01757812
-0.4921737 0.4060995 2.33125 0.015625
-0.501016 0.4180756 2.4 0.01855469
-0.4850213 0.4093657 2.35 0.01855469
-0.4794616 0.4093657 2.35 0.015625
-0.4738991 0.4093657 2.35 0.015625
-0.4708249 0.4115432 2.3625 0.01855469
-0.4689195 0.4148094 2.38125 0.01855469
-0.4620588 0.4137207 2.375 0.01757812
-0.455225 0.4126319 2.36875 0.01953125
-0.4460456 0.4093657 2.35 0.01953125
-0.4439813 0.4126319 2.36875 0.01953125
-0.4406688 0.4148094 2.38125 0.01953125
-0.429302 0.4093657 2.35 0.01757812
-0.4304771 0.4158981 2.3875 0.02050781
-0.4214631 0.4126319 2.36875 0.01855469
-0.4125358 0.4093657 2.35 0.01855469
-0.4156005 0.4180756 2.4 0.01855469
-0.4066833 0.4148094 2.38125 0.01953125
-0.4010105 0.4148094 2.38125 0.02050781
-0.3953354 0.4148094 2.38125 0.02050781
-0.3876125 0.4126319 2.36875 0.02050781
-0.3870017 0.4180756 2.4 0.01757812
-0.3792892 0.4158981 2.3875 0.01855469
-0.3735902 0.4158981 2.3875 0.02050781
-0.3717412 0.4202531 2.4125 0.02050781
-0.3640818 0.4180756 2.4 0.02246094
-0.3555468 0.4148094 2.38125 0.02050781
-0.3489359 0.4137207 2.375 0.02539062
-0.3468694 0.4180756 2.4 0.02832031
-0.3553415 0.4354954 2.5 0.0234375
-0.3353842 0.4180756 2.4 0.02929688
-0.3279218 0.4158981 2.3875 0.02929688
-0.3255782 0.4202531 2.4125 0.03027344
-0.3173134 0.4169869 2.39375 0.03320312
-0.325407 0.4354954 2.5 0.03125
-0.3042421 0.4148094 2.38125 0.02929688
-0.3040171 0.4224306 2.425 0.03027344
-0.3074232 0.4354954 2.5 0.0234375
-0.289368 0.4180756 2.4 0.02734375
-0.2858237 0.4213418 2.41875 0.02636719
-0.2894233 0.4354954 2.5 0.0234375
-0.2720831 0.4180756 2.4 0.02832031
-0.2690924 0.4224306 2.425 0.02636719
-0.2714081 0.4354954 2.5 0.0234375
-0.2547839 0.4180756 2.4 0.03027344
-0.25939 0.4354954 2.5 0.03125
-0.2533787 0.4354954 2.5 0.0234375
-0.2387081 0.4202531 2.4125 0.0390625
-0.2365246 0.4267855 2.45 0.03125
-0.2353359 0.4354954 2.5 0.03125
-0.2247325 0.4267855 2.45 0.03125
-0.2171597 0.4235193 2.43125 0.03710938
-0.2216264 0.4442053 2.55 0.0390625
-0.2112598 0.4354954 2.5 0.0390625
-0.2093424 0.4442053 2.55 0.046875
-0.2031985 0.4442053 2.55 0.0390625
-0.1931897 0.4354954 2.5 0.0390625
-0.187164 0.4354954 2.5 0.0390625
-0.1757031 0.4224306 2.425 0.03515625
-0.1751094 0.4354954 2.5 0.03125
-0.1724621 0.4442053 2.55 0.03125
-0.1630507 0.4354954 2.5 0.03125
-0.1570198 0.4354954 2.5 0.03125
-0.1509881 0.4354954 2.5 0.0390625
-0.1449555 0.4354954 2.5 0.0234375
-0.1361436 0.4267855 2.45 0.02929688
-0.1328878 0.4354954 2.5 0.0234375
-0.1293898 0.4442053 2.55 0.03125
-0.1193068 0.4300517 2.46875 0.03125
-0.1170761 0.4442053 2.55 0.03125
-0.1130931 0.4529153 2.6 0.03125
-0.1068138 0.4529153 2.6 0.03125
-0.09860048 0.4442053 2.55 0.03125
-0.09244074 0.4442053 2.55 0.03125
-0.08628046 0.4442053 2.55 0.0390625
-0.07854871 0.4354954 2.5 0.03417969
-0.07250826 0.4354954 2.5 0.03125
-0.06879375 0.4507378 2.5875 0.0390625
-0.06254105 0.4507378 2.5875 0.0390625
-0.05628799 0.4507378 2.5875 0.0390625
-0.04930946 0.4442053 2.55 0.03125
-0.04314641 0.4442053 2.55 0.03125
-0.0369831 0.4442053 2.55 0.0390625
-0.03112173 0.4485603 2.575 0.046875
-0.02501847 0.4507378 2.5875 0.0390625
-0.01885463 0.4529153 2.6 0.046875
-0.01281154 0.4616252 2.65 0.0390625
-0.00616406 0.4442053 2.55 0.03125
0 0.4442053 2.55 0.03125
0.006284925 0.4529153 2.6 0.0390625
0.01256981 0.4529153 2.6 0.046875
0.01894527 0.4550927 2.6125 0.0390625
0.02526019 0.4550927 2.6125 0.0390625
0.03142389 0.4529153 2.6 0.0390625
0.03770826 0.4529153 2.6 0.03125
0.04441542 0.4572702 2.625 0.046875
0.05075974 0.4572702 2.625 0.046875
0.05710376 0.4572702 2.625 0.0546875
0.06344745 0.4572702 2.625 0.0546875
0.06912609 0.4529153 2.6 0.046875
0.07830893 0.4703351 2.7 0.03125
0.08169065 0.4529153 2.6 0.03125
0.08797223 0.4529153 2.6 0.03027344
0.09447987 0.454004 2.60625 0.03417969
0.1024672 0.4616252 2.65 0.03125
0.110922 0.4703351 2.7 0.03125
0.1139086 0.4561815 2.61875 0.03320312
0.1205195 0.4572702 2.625 0.03417969
0.1304823 0.4703351 2.7 0.0234375
0.137001 0.4703351 2.7 0.03125
0.1461766 0.479045 2.75 0.0390625
0.1500358 0.4703351 2.7 0.03125
0.156552 0.4703351 2.7 0.03125
0.1660869 0.479045 2.75 0.03125
0.1727218 0.479045 2.75 0.03125
0.1793557 0.479045 2.75 0.03125
0.1809161 0.4659801 2.675 0.03320312
0.1926203 0.479045 2.75 0.03125
0.193364 0.4648914 2.66875 0.02929688
0.2021371 0.4703351 2.7 0.03125
0.2086449 0.4703351 2.7 0.03125
0.2151514 0.4703351 2.7 0.02734375
0.2216567 0.4703351 2.7 0.0234375
0.2323858 0.479045 2.75 0.03125
0.2357497 0.4725125 2.7125 0.02636719
0.2417228 0.4714238 2.70625 0.0234375
0.248811 0.4725125 2.7125 0.02148438
0.2553395 0.4725125 2.7125 0.02148438
0.2612631 0.4714238 2.70625 0.02148438
0.268392 0.4725125 2.7125 0.02441406
0.2787166 0.479045 2.75 0.02246094
0.285329 0.479045 2.75 0.02246094
0.2939304 0.4823112 2.76875 0.02246094
0.299906 0.4812225 2.7625 0.02246094
0.3072369 0.4823112 2.76875 0.01953125
0.3117619 0.479045 2.75 0.02148438
0.3154714 0.47469 2.725 0.02246094
0.3249675 0.479045 2.75 0.02050781
0.3338282 0.4823112 2.76875 0.02050781
0.3381656 0.479045 2.75 0.01953125
0.3494629 0.4855774 2.7875 0.02050781
0.3561469 0.4855774 2.7875 0.01855469
0.3628288 0.4855774 2.7875 0.02441406
0.3719941 0.4888436 2.80625 0.02050781
0.3778732 0.4877549 2.8 0.0234375
0.3820032 0.4844887 2.78125 0.02441406
0.3895348 0.4855774 2.7875 0.02441406
0.3979824 0.4877549 2.8 0.02832031
0.4046809 0.4877549 2.8 0.03125
0.4260691 0.5051747 2.9 0.03125
0.4218036 0.4921098 2.825 0.02734375
0.4304509 0.4942873 2.8375 0.02539062
0.4468598 0.5051747 2.9 0.0234375
0.4537849 0.5051747 2.9 0.0234375
0.4458138 0.4888436 2.80625 0.02734375
0.4676271 0.5051747 2.9 0.0234375
0.4612487 0.4910211 2.81875 0.02441406
0.4679692 0.4910211 2.81875 0.02441406
0.4799496 0.4964648 2.85 0.02050781
0.486739 0.4964648 2.85 0.02050781
0.502184 0.5051747 2.9 0.0234375
0.498115 0.4942873 2.8375 0.02246094
0.5070902 0.4964648 2.85 0.02246094
0.5183756 0.5008197 2.875 0.02050781
0.5252098 0.5008197 2.875 0.02050781
0.5308844 0.499731 2.86875 0.01953125
0.5423835 0.504086 2.89375 0.01855469
0.5456941 0.5008197 2.875 0.01953125
0.5573203 0.5051747 2.9 0.01660156
0.5629822 0.504086 2.89375 0.01660156
0.5710726 0.5051747 2.9 0.01464844
0.5729616 0.5008197 2.875 0.01269531
0.5873324 0.5073522 2.9125 0.01171875
0.6018773 0.5138846 2.95 0.01171875
0.5998269 0.5062634 2.90625 0.01367188
0.6080038 0.5073522 2.9125 0.01171875
0.6175262 0.5095297 2.925 0.01464844
0.6244356 0.5095297 2.925 0.01367188
0.6259453 0.5051747 2.9 0.01171875
0.6327883 0.5051747 2.9 0.01269531
0.6423846 0.5073522 2.9125 0.01171875
0.6631821 0.5182396 2.975 0.01074219
0.654703 0.5062634 2.90625 0.01367188
0.6658138 0.5095297 2.925 0.009765625
0.669822 0.5073522 2.9125 0.01171875
0.6897404 0.5171508 2.96875 0.01171875
0.692318 0.5138846 2.95 0.008789062
0.6992478 0.5138846 2.95 0.01074219
0.7166464 0.5215058 2.99375 0.01171875
0.7312246 0.5269495 3.025 0.009765625
0.7322161 0.5225945 3 0.006835938
0.7392465 0.5225945 3 0.01171875
0.7587104 0.5313044 3.05 0.009765625
0.7344618 0.5095297 2.925 0.008789062
0.7476397 0.5138846 2.95 0.008789062
0.7481413 0.5095297 2.925 0.008789062
0.7614272 0.5138846 2.95 0.005859375
0.7748255 0.5182396 2.975 0.01074219
0 0 0 0
0.7920167 0.520417 2.9875 0.009765625
0.7889486 0.5138846 2.95 0.0078125
0.8059338 0.520417 2.9875 0.0078125
0.8162865 0.5225945 3 0.005859375
0.8266926 0.524772 3.0125 0.008789062
0.8336927 0.524772 3.0125 0.006835938
0.8337113 0.520417 2.9875 0.01074219
0 0 0 0
0 0 0 0
0.8723698 0.5313044 3.05 0.006835938
0 0 0 0
0 0 0 0
0.8825545 0.524772 3.0125 0.008789062
0 0 0 0
0.8946094 0.5236832 3.00625 0.008789062
0.8996702 0.5225945 3 0.006835938
0.9368051 0.5400143 3.1 0.005859375
-0.6965405 0.4066923 2.2875 0.01074219
-0 0 0 0
-0.6672554 0.3955805 2.225 0.009765625
-0.6844413 0.4089146 2.3 0.009765625
-0.6569858 0.3955805 2.225 0.01074219
-0.6591694 0.4000252 2.25 0.01269531
-0.6612335 0.4044699 2.275 0.009765625
-0.6595739 0.4066923 2.2875 0.01171875
-0.650702 0.4044699 2.275 0.01171875
-0.65075 0.4078034 2.29375 0.01269531
-0.6401553 0.4044699 2.275 0.01171875
-0.6488297 0.4133593 2.325 0.01074219
-0.6330529 0.4066923 2.2875 0.01269531
-0.6174468 0.4000252 2.25 0.01171875
-0.6190173 0.4044699 2.275 0.01269531
-0.6069794 0.4000252 2.25 0.01269531
-0.6184555 0.411137 2.3125 0.01171875
-0.6031257 0.4044699 2.275 0.01464844
-0.6076756 0.411137 2.3125 0.01171875
-0.6006525 0.4100258 2.30625 0.015625
-0.5807496 0.4000252 2.25 0.01367188
-0.5866835 0.4078034 2.29375 0.015625
-0.5829055 0.4089146 2.3 0.01171875
-0.5712481 0.4044699 2.275 0.01367188
-0.5659233 0.4044699 2.275 0.01269531
-0.5667556 0.4089146 2.3 0.01464844
-0.5644166 0.411137 2.3125 0.01367188
-0.5559724 0.4089146 2.3 0.01464844
-0.5565605 0.4133593 2.325 0.01464844
-0.5436948 0.4078034 2.29375 0.01464844
-0.5339062 0.4044699 2.275 0.01660156
-0.5314631 0.4066923 2.2875 0.01855469
-0.5318329 0.411137 2.3125 0.015625
-0.5221232 0.4078034 2.29375 0.01660156
-0.5237624 0.4133593 2.325 0.01660156
-0.5154987 0.411137 2.3125 0.01464844
-0.5100479 0.411137 2.3125 0.01660156
-0.5127767 0.4178041 2.35 0.015625
-0.5072315 0.4178041 2.35 0.01660156
-0.4963463 0.4133593 2.325 0.01757812
-0.4908542 0.4133593 2.325 0.01660156
-0.4853593 0.4133593 2.325 0.01660156
-0.4759916 0.4100258 2.30625 0.01855469
-0.4667099 0.4066923 2.2875 0.01660156
-0.4638161 0.4089146 2.3 0.015625
-0.4683338 0.4178041 2.35 0.01660156
-0.4578427 0.4133593 2.325 0.01757812
-0.4523312 0.4133593 2.325 0.01953125
-0.4432138 0.4100258 2.30625 0.01953125
-0.4365553 0.4089146 2.3 0.01757812
-0.4346097 0.4122482 2.31875 0.02050781
-0.4256329 0.4089146 2.3 0.01855469
-0.4213096 0.4100258 2.30625 0.01757812
-0.4169543 0.411137 2.3125 0.01757812
-0.4092306 0.4089146 2.3 0.01757812
-0.4081471 0.4133593 2.325 0.01757812
-0.4004484 0.411137 2.3125 0.01953125
-0.3970766 0.4133593 2.325 0.01757812
-0.3957479 0.4178041 2.35 0.01855469
-0.3901473 0.4178041 2.35 0.01855469
-0.3804535 0.4133593 2.325 0.01855469
-0.3759157 0.4144705 2.33125 0.01953125
-0.3733318 0.4178041 2.35 0.01953125
-0.3638103 0.4133593 2.325 0.01953125
-0.3621106 0.4178041 2.35 0.02148438
-0.3564968 0.4178041 2.35 0.02148438
-0.3480813 0.4144705 2.33125 0.02246094
-0.3480177 0.4211376 2.36875 0.0234375
-0.3432561 0.4222488 2.375 0.02539062
-0.334021 0.4178041 2.35 0.02441406
-0.3310173 0.4211376 2.36875 0.02636719
-0.3253465 0.4211376 2.36875 0.02636719
-0.3154566 0.4155817 2.3375 0.02539062
-0.3173134 0.4255823 2.39375 0.02734375
-0.3058826 0.4178041 2.35 0.0234375
-0.3018465 0.4200265 2.3625 0.02734375
-0.2993158 0.4244712 2.3875 0.02734375
-0.2912835 0.4211376 2.36875 0.02636719
-0.2856002 0.4211376 2.36875 0.02832031
-0.295425 0.4444724 2.5 0.0234375
-0.2778464 0.4266935 2.4 0.03125
-0.2720831 0.4266935 2.4 0.03125
-0.2635441 0.4222488 2.375 0.02929688
-0.2598733 0.4255823 2.39375 0.03222656
-0.2547839 0.4266935 2.4 0.03125
-0.2490144 0.4266935 2.4 0.03125
-0.2432435 0.4266935 2.4 0.03125
-0.2424186 0.435583 2.45 0.03125
-0.2329043 0.4289159 2.4125 0.0390625
-0.2259225 0.4266935 2.4 0.03320312
-0.2201461 0.4266935 2.4 0.03515625
-0.2143685 0.4266935 2.4 0.0390625
-0.209676 0.4289159 2.4125 0.0390625
-0.2112598 0.4444724 2.5 0.03125
-0.2011329 0.435583 2.45 0.0390625
-0.1922418 0.4289159 2.4125 0.0390625
-0.1864281 0.4289159 2.4125 0.0390625
-0.1834207 0.435583 2.45 0.0390625
-0.1811372 0.4444724 2.5 0.0390625
-0.1689805 0.4289159 2.4125 0.0390625
-0.1690805 0.4444724 2.5 0.046875
-0.1630507 0.4444724 2.5 0.03125
-0.1515242 0.4289159 2.4125 0.03125
-0.1449486 0.4266935 2.4 0.03125
-0.1402445 0.4300271 2.41875 0.02929688
-0.1333652 0.4266935 2.4 0.03125
-0.13023 0.435583 2.45 0.03125
-0.1243157 0.435583 2.45 0.03125
-0.1165884 0.4289159 2.4125 0.03320312
-0.1124849 0.435583 2.45 0.02929688
-0.1087433 0.4444724 2.5 0.03125
-0.1011649 0.4378054 2.4625 0.03222656
-0.09666713 0.4444724 2.5 0.03125
-0.09062818 0.4444724 2.5 0.0390625
-0.08205102 0.4311382 2.425 0.03417969
-0.07854871 0.4444724 2.5 0.0390625
-0.07250826 0.4444724 2.5 0.03125
-0.06779674 0.4533619 2.55 0.03125
-0.05891549 0.4333606 2.4375 0.03710938
-0.05438453 0.4444724 2.5 0.03125
-0.04930946 0.4533619 2.55 0.0390625
-0.04314641 0.4533619 2.55 0.03125
-0.0369831 0.4533619 2.55 0.03125
-0.03127281 0.4600289 2.5875 0.0390625
-0.02501847 0.4600289 2.5875 0.0390625
-0.01876398 0.4600289 2.5875 0.0390625
-0.01232809 0.4533619 2.55 0.03125
-0.00616406 0.4533619 2.55 0.03125
0 0.4600289 2.5875 0.0390625
0.00616406 0.4533619 2.55 0.03125
0.01256981 0.4622513 2.6 0.03125
0.01849204 0.4533619 2.55 0.03125
0.02501847 0.4600289 2.5875 0.0390625
0.03081958 0.4533619 2.55 0.0390625
0.03770826 0.4622513 2.6 0.03125
0.04314641 0.4533619 2.55 0.0390625
0.05027631 0.4622513 2.6 0.0390625
0.05547222 0.4533619 2.55 0.0390625
0.06254105 0.4600289 2.5875 0.046875
0.06912609 0.4622513 2.6 0.0390625
0.07577113 0.4644737 2.6125 0.0390625
0.08169065 0.4622513 2.6 0.03125
0.08797223 0.4622513 2.6 0.0390625
0.09470645 0.4644737 2.6125 0.0390625
0.1010172 0.4644737 2.6125 0.0390625
0.1073273 0.4644737 2.6125 0.0390625
0.1130931 0.4622513 2.6 0.03125
0.1182239 0.4578066 2.575 0.03027344
0.128066 0.4711408 2.65 0.03125
0.1344639 0.4711408 2.65 0.0390625
0.1388678 0.4644737 2.6125 0.0390625
0.1500358 0.4800302 2.7 0.03125
0.1536528 0.4711408 2.65 0.03125
0.1630672 0.4800302 2.7 0.03125
0.1629081 0.4611402 2.59375 0.03027344
0.1760947 0.4800302 2.7 0.0234375
0.1859886 0.4889197 2.75 0.03125
0.1856159 0.4711408 2.65 0.03125
0.1897412 0.4655849 2.61875 0.02734375
0.1960543 0.4655849 2.61875 0.02929688
0.2086449 0.4800302 2.7 0.0234375
0.2151514 0.4800302 2.7 0.0234375
0.2175519 0.4711408 2.65 0.02539062
0.2281606 0.4800302 2.7 0.0234375
0.2319473 0.4744743 2.66875 0.02441406
0.2383733 0.4744743 2.66875 0.02441406
0.2453712 0.4755855 2.675 0.02148438
0.2535745 0.478919 2.69375 0.0234375
0.2558327 0.4711408 2.65 0.02050781
0.2640631 0.4744743 2.66875 0.0234375
0.2742825 0.4811414 2.70625 0.0234375
0.2788443 0.4778078 2.6875 0.0234375
0.2892858 0.484475 2.725 0.02050781
0.2937993 0.4811414 2.70625 0.02050781
0.3003016 0.4811414 2.70625 0.0234375
0.306802 0.4811414 2.70625 0.02148438
0.3205363 0.4922532 2.76875 0.01953125
0.3249675 0.4889197 2.75 0.01953125
0.3293068 0.4855861 2.73125 0.02050781
0.3350913 0.484475 2.725 0.01953125
0.3416274 0.484475 2.725 0.01953125
0.3545498 0.4933644 2.775 0.01953125
0.3603882 0.4922532 2.76875 0.02148438
0.3612236 0.484475 2.725 0.02050781
0.3677515 0.484475 2.725 0.02246094
0.377711 0.4889197 2.75 0.02441406
0.3860412 0.491142 2.7625 0.02441406
0.394429 0.4933644 2.775 0.02539062
0.4046809 0.4978091 2.8 0.03125
0.4067858 0.4922532 2.76875 0.02441406
0.4330019 0.515588 2.9 0.0234375
0.4200214 0.4922532 2.76875 0.02441406
0.4275987 0.4933644 2.775 0.02636719
0.4361812 0.4955868 2.7875 0.02636719
0.4607074 0.515588 2.9 0.0234375
0.4494864 0.4955868 2.7875 0.02734375
0.4561351 0.4955868 2.7875 0.02929688
0.4648563 0.4978091 2.8 0.02636719
0.4883697 0.515588 2.9 0.0234375
0.4771324 0.4966979 2.79375 0.0234375
0.4902788 0.503365 2.83125 0.02246094
0.5090867 0.515588 2.9 0.0234375
0.5004179 0.5000315 2.8125 0.02050781
0.5059797 0.4989203 2.80625 0.02148438
0.510367 0.4966979 2.79375 0.02050781
0.520475 0.5000315 2.8125 0.01757812
0.528326 0.5011427 2.81875 0.01757812
0.5302723 0.4966979 2.79375 0.01855469
0.5405046 0.5000315 2.8125 0.01855469
0.5593343 0.5111433 2.875 0.01660156
0.5612265 0.5066985 2.85 0.015625
0.562997 0.5022538 2.825 0.01464844
0.5747287 0.5066985 2.85 0.01464844
0.5763741 0.5022538 2.825 0.01269531
0.5985369 0.515588 2.9 0.01367188
0.5949565 0.5066985 2.85 0.01269531
0.5977337 0.503365 2.83125 0.01464844
0.6124272 0.5100321 2.86875 0.01269531
0.6245962 0.5144768 2.89375 0.01464844
0.6300607 0.5133656 2.8875 0.01269531
0.6285996 0.5066985 2.85 0.01464844
0.6464632 0.515588 2.9 0.01171875
0.653295 0.515588 2.9 0.01074219
0.6715045 0.5244775 2.95 0.008789062
0.6554481 0.5066985 2.85 0.01269531
0.6737674 0.515588 2.9 0.009765625
0.6776502 0.5133656 2.8875 0.01171875
0.7036921 0.527811 2.96875 0.01171875
0.7001889 0.5200328 2.925 0.01367188
0.7191383 0.5289222 2.975 0.01074219
0.7108598 0.5178104 2.9125 0.01074219
0.7146049 0.515588 2.9 0.005859375
0.7400536 0.5289222 2.975 0.008789062
0.7313231 0.5178104 2.9125 0.006835938
0.7349678 0.515588 2.9 0.009765625
0.7545356 0.5244775 2.95 0.009765625
0.7485216 0.515588 2.9 0.01269531
0.7683143 0.5244775 2.95 0.0078125
0.7850512 0.5311446 2.9875 0.0078125
0.7953305 0.5333669 3 0.008789062
0.7889486 0.5244775 2.95 0.01074219
0.8059338 0.5311446 2.9875 0.0078125
0.8026817 0.5244775 2.95 0.006835938
0.8232624 0.5333669 3 0.005859375
0.8163962 0.5244775 2.95 0.008789062
0.8232462 0.5244775 2.95 0.008789062
0.8406435 0.5311446 2.9875 0.008789062
0.8369319 0.5244775 2.95 0.006835938
0.8330416 0.5178104 2.9125 0.0078125
0 0 0 0
0.8428911 0.515588 2.9 0.0078125
0.8642443 0.5244775 2.95 0.005859375
0.8710598 0.5244775 2.95 0.008789062
0.8778703 0.5244775 2.95 0.006835938
0.9146647 0.5422564 3.05 0.006835938
0.8801435 0.5178104 2.9125 0.008789062
-0.6718 0.4001639 2.20625 0.0078125
-0.6723843 0.4035647 2.225 0.01074219
-0.6747527 0.4080992 2.25 0.009765625
-0.6639825 0.4046983 2.23125 0.01171875
-0.6514494 0.4001639 2.20625 0.01171875
-0.6664935 0.4126336 2.275 0.01269531
-0.6430678 0.4012975 2.2125 0.008789062
-0.6559697 0.4126336 2.275 0.01171875
-0.6650032 0.4217025 2.325 0.01171875
-0.6383379 0.4080992 2.25 0.009765625
-0.6401553 0.4126336 2.275 0.009765625
-0.6139464 0.3990303 2.2 0.009765625
-0.6347826 0.4160344 2.29375 0.01074219
-0.6174468 0.4080992 2.25 0.01074219
-0.6071131 0.4046983 2.23125 0.01464844
-0.6137236 0.4126336 2.275 0.01367188
-0.5967259 0.4046983 2.23125 0.01171875
-0.5964979 0.4080992 2.25 0.01269531
-0.5863248 0.4046983 2.23125 0.01464844
-0.5860025 0.4080992 2.25 0.01367188
-0.5807496 0.4080992 2.25 0.01464844
-0.5866835 0.4160344 2.29375 0.01464844
-0.5765696 0.4126336 2.275 0.01367188
-0.5712481 0.4126336 2.275 0.01660156
-0.5550402 0.4046983 2.23125 0.015625
-0.5498146 0.4046983 2.23125 0.015625
-0.5552639 0.4126336 2.275 0.01464844
-0.5559724 0.417168 2.3 0.01953125
-0.5356146 0.4058319 2.2375 0.01757812
-0.5422133 0.4149008 2.2875 0.015625
-0.5280392 0.4080992 2.25 0.015625
-0.528559 0.4126336 2.275 0.01660156
-0.5275207 0.4160344 2.29375 0.01660156
-0.5121644 0.4080992 2.25 0.015625
-0.5181305 0.417168 2.3 0.015625
-0.5015663 0.4080992 2.25 0.01757812
-0.4962628 0.4080992 2.25 0.01464844
-0.4909564 0.4080992 2.25 0.015625
-0.4937413 0.4149008 2.2875 0.01464844
-0.4883407 0.4149008 2.2875 0.01757812
-0.4829372 0.4149008 2.2875 0.015625
-0.4775309 0.4149008 2.2875 0.015625
-0.4695419 0.4126336 2.275 0.01757812
-0.4667099 0.4149008 2.2875 0.01367188
-0.4537331 0.4080992 2.25 0.015625
-0.4484047 0.4080992 2.25 0.01660156
-0.4479966 0.4126336 2.275 0.01953125
-0.4426037 0.4126336 2.275 0.01855469
-0.4372082 0.4126336 2.275 0.02050781
-0.4318101 0.4126336 2.275 0.01953125
-0.4264095 0.4126336 2.275 0.02050781
-0.41638 0.4080992 2.25 0.01953125
-0.4178844 0.4149008 2.2875 0.01464844
-0.4023046 0.4046983 2.23125 0.01660156
-0.4103427 0.4183016 2.30625 0.01953125
-0.3927867 0.4058319 2.2375 0.01953125
-0.402613 0.4217025 2.325 0.01953125
-0.3885373 0.4126336 2.275 0.01953125
-0.3894328 0.4194352 2.3125 0.01953125
-0.3808086 0.4160344 2.29375 0.01855469
-0.3804535 0.4217025 2.325 0.01953125
-0.368861 0.4149008 2.2875 0.01660156
-0.3733318 0.4262369 2.35 0.01953125
-0.3589204 0.4160344 2.29375 0.02148438
-0.3553692 0.4183016 2.30625 0.02050781
-0.3564968 0.4262369 2.35 0.01953125
-0.3471481 0.4217025 2.325 0.02050781
-0.3388351 0.4183016 2.30625 0.0234375
-0.3324165 0.417168 2.3 0.0234375
-0.3286909 0.4194352 2.3125 0.02246094
-0.3249035 0.4217025 2.325 0.02050781
-0.3176206 0.4194352 2.3125 0.0234375
-0.3129262 0.4205689 2.31875 0.02246094
-0.3082 0.4217025 2.325 0.02246094
-0.2993744 0.417168 2.3 0.0234375
-0.2978538 0.4228361 2.33125 0.02441406
-0.2946145 0.4262369 2.35 0.02246094
-0.2912835 0.4296377 2.36875 0.02636719
-0.2863537 0.4307713 2.375 0.02734375
-0.283608 0.4353058 2.4 0.03125
-0.2778464 0.4353058 2.4 0.03125
-0.2720831 0.4353058 2.4 0.03125
-0.2663182 0.4353058 2.4 0.03125
-0.2524095 0.4217025 2.325 0.03222656
-0.2547839 0.4353058 2.4 0.0390625
-0.2490144 0.4353058 2.4 0.03125
-0.2432435 0.4353058 2.4 0.03125
-0.2473659 0.4534435 2.5 0.0234375
-0.2316976 0.4353058 2.4 0.03125
-0.2259225 0.4353058 2.4 0.03125
-0.2201461 0.4353058 2.4 0.03125
-0.2143685 0.4353058 2.4 0.0390625
-0.2085896 0.4353058 2.4 0.0390625
-0.2028095 0.4353058 2.4 0.0390625
-0.1970281 0.4353058 2.4 0.0390625
-0.1922418 0.437573 2.4125 0.0390625
-0.1854621 0.4353058 2.4 0.046875
-0.1801454 0.4364394 2.40625 0.046875
-0.1775145 0.4443747 2.45 0.0390625
-0.168105 0.4353058 2.4 0.046875
-0.1623173 0.4353058 2.4 0.046875
-0.1565286 0.4353058 2.4 0.03125
-0.1491688 0.4307713 2.375 0.02929688
-0.1449486 0.4353058 2.4 0.0390625
-0.1391573 0.4353058 2.4 0.03125
-0.1330179 0.4341722 2.39375 0.02734375
-0.13023 0.4443747 2.45 0.03125
-0.1214615 0.4341722 2.39375 0.03125
-0.1159843 0.4353058 2.4 0.03125
0 0 nan 0
-0.1043936 0.4353058 2.4 0.02929688
-0.1006514 0.4443747 2.45 0.03125
-0.09231711 0.4330386 2.3875 0.03417969
-0.08722962 0.4364394 2.40625 0.03613281
-0.08458868 0.4534435 2.5 0.0234375
-0.07697773 0.4443747 2.45 0.03125
-0.07250826 0.4534435 2.5 0.03125
-0.06513805 0.4443747 2.45 0.0390625
-0.06042614 0.4534435 2.5 0.03125
-0.05220915 0.4353058 2.4 0.03417969
-0.04737575 0.4443747 2.45 0.03710938
-0.0423004 0.4534435 2.5 0.046875
-0.03498892 0.437573 2.4125 0.0390625
-0.03021528 0.4534435 2.5 0.0390625
-0.02368899 0.4443747 2.45 0.0390625
-0.01849204 0.4625124 2.55 0.0390625
-0.01184463 0.4443747 2.45 0.03417969
-0.006043197 0.4534435 2.5 0.03125
0 0.4625124 2.55 0.0390625
0.006043197 0.4534435 2.5 0.03125
0.01232809 0.4625124 2.55 0.03125
0.01785751 0.4466419 2.4625 0.03613281
0.02501847 0.469314 2.5875 0.0390625
0.03142389 0.4715813 2.6 0.03125
0.0369831 0.4625124 2.55 0.0390625
0.04314641 0.4625124 2.55 0.03125
0.0500346 0.469314 2.5875 0.0390625
0.05547222 0.4625124 2.55 0.03125
0.06163466 0.4625124 2.55 0.03125
0.06779674 0.4625124 2.55 0.03125
0.07540859 0.4715813 2.6 0.03125
0.08169065 0.4715813 2.6 0.0390625
0.08628046 0.4625124 2.55 0.03125
0.0942533 0.4715813 2.6 0.03125
0.1000505 0.469314 2.5875 0.0390625
0.1047596 0.4625124 2.55 0.0390625
0.1130931 0.4715813 2.6 0.03125
0.1193717 0.4715813 2.6 0.03125
0.1244415 0.4670468 2.575 0.03125
0.1319269 0.4715813 2.6 0.03125
0.1382033 0.4715813 2.6 0.03125
0.1430897 0.4670468 2.575 0.02929688
0.1507537 0.4715813 2.6 0.03125
0.1600474 0.4806501 2.65 0.03125
0.1617304 0.4670468 2.575 0.02929688
0.1671269 0.4647796 2.5625 0.03027344
0.1758437 0.4715813 2.6 0.0390625
0.1794871 0.4647796 2.5625 0.02636719
0.1870242 0.4681804 2.58125 0.02539062
0.1951185 0.4727149 2.60625 0.02636719
0.2009173 0.4715813 2.6 0.02636719
0.2071828 0.4715813 2.6 0.02636719
0.2134472 0.4715813 2.6 0.02832031
0.2191821 0.4704476 2.59375 0.02636719
0.225972 0.4715813 2.6 0.02636719
0.2411646 0.489719 2.7 0.0234375
0.2390649 0.4727149 2.60625 0.02734375
0.2447494 0.4715813 2.6 0.02441406
0.2534192 0.4761157 2.625 0.02441406
0.2597342 0.4761157 2.625 0.0234375
0.2685814 0.4806501 2.65 0.02246094
0.2801412 0.489719 2.7 0.0234375
0.2813239 0.4806501 2.65 0.01953125
0.2876926 0.4806501 2.65 0.01953125
0.2940597 0.4806501 2.65 0.02050781
0.3032593 0.4851846 2.675 0.02050781
0.3067887 0.4806501 2.65 0.01757812
0.3153662 0.484051 2.66875 0.01855469
0.3225248 0.4851846 2.675 0.02148438
0.3297114 0.4863182 2.68125 0.02246094
0.3384932 0.489719 2.7 0.02050781
0.3417733 0.4851846 2.675 0.02050781
0.3481855 0.4851846 2.675 0.02246094
0.3545957 0.4851846 2.675 0.01953125
0.3610038 0.4851846 2.675 0.02246094
0.3639761 0.4806501 2.65 0.02441406
0.3773073 0.489719 2.7 0.02441406
0.3846571 0.4908526 2.70625 0.02441406
0.392938 0.4931198 2.71875 0.02441406
0.3985215 0.4919862 2.7125 0.02441406
0.4068725 0.4942534 2.725 0.0234375
0.4171771 0.4987879 2.75 0.0234375
0.417005 0.4908526 2.70625 0.02246094
0.4224894 0.489719 2.7 0.0234375
0.4398564 0.5021887 2.76875 0.02441406
0.451502 0.5078567 2.8 0.0234375
0.4581805 0.5078567 2.8 0.03125
0.4534424 0.495387 2.73125 0.02441406
0.4652143 0.5010551 2.7625 0.02246094
0.4696605 0.4987879 2.75 0.01953125
0.476209 0.4987879 2.75 0.01855469
0.4871433 0.5033223 2.775 0.01855469
0.4948577 0.5044559 2.78125 0.01855469
0.4992183 0.5021887 2.76875 0.01660156
0.5023746 0.4987879 2.75 0.015625
0.5123787 0.5021887 2.76875 0.01757812
0.5248117 0.5078567 2.8 0.01855469
0.529086 0.5055895 2.7875 0.01757812
0.5284934 0.4987879 2.75 0.01757812
0.5398793 0.5033223 2.775 0.01757812
0.5464574 0.5033223 2.775 0.01660156
0.5679793 0.5169256 2.85 0.015625
0.5646457 0.5078567 2.8 0.01660156
0.5699982 0.5067231 2.79375 0.01660156
0.5804776 0.510124 2.8125 0.01464844
0.5832139 0.5067231 2.79375 0.01464844
0.5924557 0.5089903 2.80625 0.01367188
0.6004189 0.510124 2.8125 0.01367188
0.6043609 0.5078567 2.8 0.015625
0.6150593 0.5112575 2.81875 0.01367188
0.6175715 0.5078567 2.8 0.01367188
0.6353173 0.5169256 2.85 0.01269531
0.6363995 0.5123911 2.825 0.01367188
0.6572777 0.5237272 2.8875 0.01171875
0.6554481 0.5169256 2.85 0.01074219
0.6563424 0.5123911 2.825 0.01171875
0.6776502 0.5237272 2.8875 0.008789062
0.6755444 0.5169256 2.85 0.01074219
0.6942044 0.5259945 2.9 0.009765625
0.6889223 0.5169256 2.85 0.009765625
0.687978 0.5112575 2.81875 0.01269531
0.7084445 0.5214601 2.875 0.009765625
0.7213967 0.5259945 2.9 0.01074219
0.7156295 0.5169256 2.85 0.009765625
0.7349678 0.5259945 2.9 0.009765625
0.7385497 0.5237272 2.8875 0.009765625
0.7291633 0.5123911 2.825 0.009765625
0.7552921 0.5259945 2.9 0.009765625
0.762058 0.5259945 2.9 0.01074219
0.7721334 0.5282617 2.9125 0.0078125
0.7755765 0.5259945 2.9 0.009765625
0.7823291 0.5259945 2.9 0.008789062
0.789077 0.5259945 2.9 0.0078125
0.7958203 0.5259945 2.9 0.0078125
0.8163962 0.5350633 2.95 0.01074219
0.8162696 0.5305289 2.925 0.009765625
0.8195395 0.5282617 2.9125 0.006835938
0.8227466 0.5259945 2.9 0.0078125
0.8544933 0.541865 2.9875 0.0078125
0.8073473 0.5078567 2.8 0.0078125
0.8428911 0.5259945 2.9 0.009765625
0.8349479 0.5169256 2.85 0.005859375
0.8526052 0.5237272 2.8875 0.006835938
0 0 0 0
0.8696812 0.5259945 2.9 0.008789062
0.8914759 0.5350633 2.95 0.006835938
-0.6698969 0.4069195 2.2 0.008789062
-0.661052 0.4046075 2.1875 0.01171875
-0.6616324 0.4080756 2.20625 0.01269531
-0.6491033 0.4034515 2.18125 0.01074219
-0.649604 0.4069195 2.2 0.009765625
-0.6518453 0.4115436 2.225 0.009765625
-0.6539672 0.4161677 2.25 0.01074219
-0.6307401 0.4046075 2.1875 0.01074219
-0.6292503 0.4069195 2.2 0.01171875
-0.6259258 0.4080756 2.20625 0.01367188
-0.626086 0.4115436 2.225 0.01269531
-0.6139464 0.4069195 2.2 0.01269531
-0.5950006 0.3976714 2.15 0.01171875
-0.6243073 0.4207918 2.275 0.01269531
-0.6020113 0.4092316 2.2125 0.01367188
-0.6002352 0.4115436 2.225 0.01074219
-0.5900399 0.4080756 2.20625 0.01367188
-0.6031257 0.4207918 2.275 0.01171875
-0.5912519 0.4161677 2.25 0.01171875
-0.5729802 0.4069195 2.2 0.015625
-0.5694572 0.4080756 2.20625 0.01757812
-0.5690989 0.4115436 2.225 0.02246094
-0.5638977 0.4115436 2.225 0.01953125
-0.5586932 0.4115436 2.225 0.01660156
-0.5488213 0.4080756 2.20625 0.01855469
-0.5498146 0.4126996 2.23125 0.01855469
-0.5445857 0.4126996 2.23125 0.01953125
-0.5302889 0.4057635 2.19375 0.01855469
-0.5341185 0.4126996 2.23125 0.01757812
-0.5214729 0.4069195 2.2 0.01757812
-0.5236388 0.4126996 2.23125 0.01660156
-0.5271069 0.4196358 2.26875 0.01855469
-0.517459 0.4161677 2.25 0.01953125
-0.5036284 0.4092316 2.2125 0.01757812
-0.5068669 0.4161677 2.25 0.01660156
-0.5099257 0.4231038 2.2875 0.01660156
-0.4907488 0.4115436 2.225 0.01660156
-0.4827738 0.4092316 2.2125 0.015625
-0.4856472 0.4161677 2.25 0.01367188
-0.4803351 0.4161677 2.25 0.01464844
-0.4750202 0.4161677 2.25 0.015625
-0.4736167 0.4196358 2.26875 0.01660156
-0.4540625 0.4069195 2.2 0.01367188
-0.459059 0.4161677 2.25 0.01464844
-0.449952 0.4126996 2.23125 0.015625
-0.4558781 0.4231038 2.2875 0.01757812
-0.4369198 0.4103876 2.21875 0.015625
-0.4377399 0.4161677 2.25 0.01855469
-0.4324037 0.4161677 2.25 0.01855469
-0.4235061 0.4126996 2.23125 0.01855469
-0.425238 0.4196358 2.26875 0.02050781
-0.41638 0.4161677 2.25 0.01464844
-0.4110338 0.4161677 2.25 0.015625
-0.4023046 0.4126996 2.23125 0.01757812
-0.3969982 0.4126996 2.23125 0.01855469
-0.3949811 0.4161677 2.25 0.01953125
-0.3939547 0.4207918 2.275 0.01855469
-0.3842677 0.4161677 2.25 0.01953125
-0.3789076 0.4161677 2.25 0.01953125
-0.3683571 0.4103876 2.21875 0.01855469
-0.3681808 0.4161677 2.25 0.01660156
-0.3628141 0.4161677 2.25 0.01757812
-0.3574454 0.4161677 2.25 0.01660156
-0.3589204 0.4242598 2.29375 0.02246094
-0.3467016 0.4161677 2.25 0.02148438
-0.3413267 0.4161677 2.25 0.02050781
-0.3331502 0.4126996 2.23125 0.02148438
-0.3305708 0.4161677 2.25 0.01855469
-0.3288032 0.4207918 2.275 0.02148438
-0.3269141 0.4254159 2.3 0.0234375
-0.3179163 0.4207918 2.275 0.01953125
-0.3090363 0.4161677 2.25 0.02050781
-0.3087088 0.4231038 2.2875 0.02441406
-0.3057145 0.4265719 2.30625 0.02050781
-0.2993744 0.4254159 2.3 0.02441406
-0.2954582 0.4277279 2.3125 0.02148438
-0.2883461 0.4254159 2.3 0.02050781
-0.2828294 0.4254159 2.3 0.02148438
-0.2780645 0.4265719 2.30625 0.0234375
-0.2732681 0.4277279 2.3125 0.0234375
-0.2691637 0.43004 2.325 0.02539062
-0.2720831 0.4439122 2.4 0.03125
-0.2566087 0.4277279 2.3125 0.03222656
-0.2510525 0.4277279 2.3125 0.02734375
-0.2441679 0.4254159 2.3 0.0234375
-0.2490144 0.4439122 2.4 0.03125
-0.2318415 0.4231038 2.2875 0.02734375
-0.2306687 0.431196 2.33125 0.02734375
-0.2316976 0.4439122 2.4 0.03125
-0.2170974 0.4265719 2.30625 0.03417969
-0.2201461 0.4439122 2.4 0.03125
-0.2099025 0.434664 2.35 0.0390625
-0.2085896 0.4439122 2.4 0.03125
-0.2028095 0.4439122 2.4 0.0390625
-0.1970281 0.4439122 2.4 0.046875
-0.1872614 0.434664 2.35 0.0390625
-0.1854621 0.4439122 2.4 0.0390625
-0.1787416 0.4416002 2.3875 0.046875
-0.1738917 0.4439122 2.4 0.03125
-0.168105 0.4439122 2.4 0.0390625
-0.1656989 0.4531604 2.45 0.03125
-0.1532676 0.434664 2.35 0.03320312
-0.1507391 0.4439122 2.4 0.0390625
-0.1411739 0.432352 2.3375 0.02929688
-0.135171 0.431196 2.33125 0.02636719
-0.1295448 0.431196 2.33125 0.02734375
-0.1275723 0.4439122 2.4 0.0390625
-0.1217786 0.4439122 2.4 0.03125
-0.1159843 0.4439122 2.4 0.03125
-0.1101893 0.4439122 2.4 0.03125
-0.1043936 0.4439122 2.4 0.0390625
-0.09859731 0.4439122 2.4 0.0390625
-0.09280045 0.4439122 2.4 0.03125
-0.08700305 0.4439122 2.4 0.046875
-0.08289691 0.4531604 2.45 0.03125
-0.07540675 0.4439122 2.4 0.03125
-0.06960793 0.4439122 2.4 0.03125
-0.06347636 0.4416002 2.3875 0.03320312
-0.0580091 0.4439122 2.4 0.03125
-0.05438453 0.4624086 2.5 0.03125
-0.04665061 0.4462243 2.4125 0.0390625
-0.04103139 0.4485363 2.425 0.046875
-0.03498892 0.4462243 2.4125 0.0390625
-0.02961097 0.4531604 2.45 0.0390625
-0.02320554 0.4439122 2.4 0.046875
-0.01740427 0.4439122 2.4 0.0390625
-0.01166334 0.4462243 2.4125 0.0390625
-0.005922333 0.4531604 2.45 0.0390625
0 0.4462243 2.4125 0.0390625
0.005861901 0.4485363 2.425 0.03515625
0.01232809 0.4716567 2.55 0.03125
0.01812945 0.4624086 2.5 0.03125
0.02501847 0.4785929 2.5875 0.0390625
0.02961097 0.4531604 2.45 0.0390625
0.0369831 0.4716567 2.55 0.0390625
0.04113714 0.4496923 2.43125 0.03710938
0.04834261 0.4624086 2.5 0.03125
0.05547222 0.4716567 2.55 0.0390625
0.06163466 0.4716567 2.55 0.03125
0.06513805 0.4531604 2.45 0.03222656
0.07395843 0.4716567 2.55 0.03125
0.08011968 0.4716567 2.55 0.03125
0.08628046 0.4716567 2.55 0.03125
0.08949532 0.4566284 2.46875 0.03320312
0.09860048 0.4716567 2.55 0.03125
0.1047596 0.4716567 2.55 0.03125
0.1130931 0.4809049 2.6 0.03125
0.1170761 0.4716567 2.55 0.03125
0.1256496 0.4809049 2.6 0.03125
0.1319269 0.4809049 2.6 0.03125
0.1375389 0.4785929 2.5875 0.0390625
0.1444789 0.4809049 2.6 0.03125
0.1507537 0.4809049 2.6 0.03125
0.1570276 0.4809049 2.6 0.03125
0.1633006 0.4809049 2.6 0.03125
0.1630507 0.4624086 2.5 0.0234375
0.171194 0.4681887 2.53125 0.02832031
0.1786116 0.4716567 2.55 0.02636719
0.1883827 0.4809049 2.6 0.03125
0.1890356 0.4670326 2.525 0.02441406
0.2009173 0.4809049 2.6 0.03125
0.2051907 0.4762808 2.575 0.02636719
0.2093424 0.4716567 2.55 0.02539062
0.2165413 0.4739688 2.5625 0.02832031
0.225972 0.4809049 2.6 0.03125
0.2294413 0.4751248 2.56875 0.02441406
0.2367718 0.4774368 2.58125 0.02539062
0.2400427 0.4716567 2.55 0.02441406
0.2491955 0.4774368 2.58125 0.02636719
0.2547868 0.4762808 2.575 0.02636719
0.2628804 0.4797489 2.59375 0.02636719
0.2678202 0.4774368 2.58125 0.0234375
0.2760158 0.4809049 2.6 0.02539062
0.2822645 0.4809049 2.6 0.02050781
0.289205 0.4820609 2.60625 0.02441406
0.2954652 0.4820609 2.60625 0.02246094
0.3002767 0.4797489 2.59375 0.02246094
0.3087191 0.4832169 2.6125 0.02441406
0.3149891 0.4832169 2.6125 0.02148438
0.3212573 0.4832169 2.6125 0.02246094
0.3290907 0.485529 2.625 0.0234375
0.3337879 0.4832169 2.6125 0.02539062
0.3400503 0.4832169 2.6125 0.0234375
0.3487962 0.486685 2.63125 0.02148438
0.3610038 0.4947772 2.675 0.01953125
0.3708436 0.4994012 2.7 0.0234375
0.3668265 0.485529 2.625 0.02636719
0.3748852 0.487841 2.6375 0.02246094
0.3830016 0.4901531 2.65 0.01953125
0.3948485 0.4970892 2.6875 0.02148438
0.3984737 0.4936211 2.66875 0.0234375
0.402007 0.4901531 2.65 0.02050781
0.417005 0.5005572 2.70625 0.02050781
0.4127096 0.487841 2.6375 0.02050781
0.4289344 0.4994012 2.7 0.01660156
0.4323535 0.4959332 2.68125 0.02148438
0.4459078 0.5040253 2.725 0.01953125
0.4461791 0.4970892 2.6875 0.02050781
0.4557416 0.5005572 2.70625 0.01855469
