# .PCD v0.7 - Point Cloud Data file format
VERSION 0.7
FIELDS x y z rgba
SIZE 4 4 4 4
TYPE F F F U
COUNT 1 1 1 1
WIDTH 1177
HEIGHT 1
VIEWPOINT 0 0 0 1 0 0 0
POINTS 1177
DATA ascii
-1457.6996 506.57471 -1472.3304 11206400
-1454.8342 517.33356 -1472.8724 11206400
-1455.2739 529.15045 -1476.9395 11206400
-1459.5948 542.95374 -1484.4987 11206400
-1471.2466 559.68628 -1501.9503 11206400
-1423.2236 901.74243 -1606.2218 11206400
-1404.6672 908.591 -1594.5396 11206400
-1392.3875 918.55347 -1592.0717 11206400
-1385.8463 929.76459 -1591.271 11206400
-1384.715 943.51318 -1599.1027 11206400
-1415.8441 983.52515 -1643.4828 11206400
-1401.6051 989.05261 -1634.1317 11206400
-1390.1315 997.41949 -1632.0383 11206400
-1381.4227 1006.0917 -1630.7788 11206400
-1375.5898 1017.6752 -1633.3033 11206400
-1371.4669 1030.377 -1636.9231 11206400
-1370.7467 1045.7545 -1644.6003 11206400
-1375.3367 1064.7783 -1658.3324 11206400
-1475.116 482.38385 -1482.691 11206400
-1465.4058 491.2139 -1475.9716 11206400
-1459.7661 501.34012 -1474.8262 11206400
-1456.6084 512.15192 -1474.2332 11206400
-1454.7596 522.96936 -1476.3169 11206400
-1456.8271 535.73224 -1483.7598 11206400
-1464.0626 550.69568 -1494.7976 11206400
-1416.9091 901.74396 -1605.1432 11206400
-1401.3419 909.68353 -1596.1171 11206400
-1391.145 920.22357 -1593.6411 11206400
-1385.4738 932.40619 -1594.8311 11206400
-1387.8875 948.99066 -1607.1703 11206400
-1411.4491 984.89203 -1644.416 11206400
-1397.4824 990.76678 -1635.3193 11206400
-1386.8289 999.68915 -1632.1558 11206400
-1378.8142 1009.259 -1633.0564 11206400
-1374.3628 1021.4644 -1635.3027 11206400
-1371.0941 1034.6278 -1640.4941 11206400
-1370.6259 1050.0366 -1649.3625 11206400
-1380.6921 1073.5894 -1670.4004 11206400
-1478.1838 479.78189 -1486.5607 11206400
-1467.3776 488.12195 -1479.0919 11206400
-1461.4524 498.00604 -1476.312 11206400
-1456.5031 508.19522 -1476.4292 11206400
-1455.6631 519.67224 -1478.6165 11206400
-1456.0541 531.96442 -1481.9684 11206400
-1461.048 546.20715 -1492.7415 11206400
-1411.7628 903.23077 -1604.0688 11206400
-1397.267 911.04321 -1596.1644 11206400
-1388.2848 924.46692 -1594.9819 11206400
-1384.5177 939.10901 -1600.4174 11206400
-1418.5751 981.99597 -1650.0092 11206400
-1403.0552 986.85535 -1641.6008 11206400
-1393.1494 995.13867 -1637.6636 11206400
-1382.954 1002.9528 -1634.7428 11206400
-1376.8026 1013.8828 -1635.2184 11206400
-1372.4778 1026.4093 -1638.5676 11206400
-1370.3588 1040.6865 -1646.1101 11206400
-1371.9996 1058.8326 -1656.7972 11206400
-1481.9108 477.22531 -1491.7756 11206400
-1470.3982 485.52664 -1484.3242 11206400
-1462.8052 495.02652 -1480.0238 11206400
-1457.335 505.19553 -1477.9386 11206400
-1454.5431 515.97369 -1478.2667 11206400
-1454.5569 527.94128 -1483.4296 11206400
-1458.4861 542.54132 -1489.7905 11206400
-1469.4974 559.02087 -1506.6569 11206400
-1415.752 901.00751 -1608.4565 11206400
-1400.8762 907.85474 -1600.3129 11206400
-1390.5531 919.83209 -1597.7094 11206400
-1384.4099 931.69025 -1598.1975 11206400
-1427.5858 980.35864 -1658.126 11206400
-1410.574 984.28137 -1648.1348 11206400
-1397.1487 990.53015 -1639.7992 11206400
-1387.3683 998.46185 -1637.2231 11206400
-1379.0945 1007.8406 -1637.0214 11206400
-1373.5111 1019.4016 -1638.0271 11206400
-1370.9355 1033.2715 -1644.9523 11206400
-1369.9993 1047.8895 -1652.5487 11206400
-1378.4929 1070.1838 -1671.0734 11206400
-1473.876 483.07358 -1488.4688 11206400
-1464.1099 491.87247 -1481.8085 11206400
-1458.6642 502.0564 -1479.7205 11206400
-1454.9247 512.34314 -1479.1536 11206400
-1453.856 523.74622 -1482.2816 11206400
-1456.3867 536.83868 -1489.8639 11206400
-1462.915 551.54517 -1500.9552 11206400
-1421.646 899.02429 -1613.91 11206400
-1406.0364 905.27667 -1603.8979 11206400
-1394.5183 914.9776 -1601.0867 11206400
-1386.7448 927.86145 -1599.7014 11206400
-1384.8372 942.23602 -1607.125 11206400
-1416.7694 982.55786 -1653.9711 11206400
-1402.3066 987.73621 -1645.7576 11206400
-1390.4037 994.78882 -1640.2076 11206400
-1382.1124 1003.7585 -1639.7289 11206400
-1375.8647 1014.6165 -1641.0446 11206400
-1372.0112 1027.2913 -1643.7557 11206400
-1370.6768 1042.1735 -1652.2788 11206400
-1371.3633 1058.3416 -1660.9628 11206400
-1471.5033 483.38947 -1487.9709 11206400
-1463.6586 492.81427 -1483.9628 11206400
-1457.3729 502.54913 -1481.4022 11206400
-1456.189 514.04401 -1484.1091 11206400
-1454.0767 525.08612 -1484.9131 11206400
-1456.4578 538.13409 -1492.7921 11206400
-1463.6544 553.26727 -1503.6442 11206400
-1420.0541 898.01758 -1614.4279 11206400
-1405.3049 904.80573 -1605.5264 11206400
-1393.5557 914.34595 -1602.2853 11206400
-1386.6282 927.78345 -1601.87 11206400
-1386.2937 941.86707 -1610.7068 11206400
-1416.0885 982.08563 -1655.5565 11206400
-1402.1628 987.63495 -1647.9622 11206400
-1390.2653 994.68976 -1642.4067 11206400
-1381.975 1003.6587 -1641.9265 11206400
-1375.1471 1014.0872 -1642.5503 11206400
-1372.1042 1027.361 -1646.2343 11206400
-1369.6676 1041.4061 -1653.599 11206400
-1371.5022 1058.4487 -1663.5238 11206400
1188.0405 252.70398 -1167.8722 43775
-1473.5096 481.70224 -1491.8728 11206400
-1466.0846 491.28479 -1487.4156 11206400
-1459.4933 501.09003 -1485.2932 11206400
-1455.3877 511.56558 -1483.7318 11206400
-1454.7073 522.95056 -1487.0691 11206400
-1456.4769 535.60339 -1494.26 11206400
-1460.5743 549.38354 -1502.1505 11206400
-1417.6808 898.03979 -1613.9042 11206400
-1404.576 904.33649 -1607.0051 11206400
-1393.0699 914.02728 -1604.1874 11206400
-1386.5964 929.10999 -1605.1702 11206400
-1386.4342 943.32269 -1613.7744 11206400
-1415.6429 981.77661 -1657.4193 11206400
-1401.7239 987.32581 -1649.8191 11206400
-1390.1251 994.58948 -1644.6056 11206400
-1381.3108 1003.1764 -1643.501 11206400
-1374.1328 1013.3392 -1643.8604 11206400
-1370.9255 1026.4784 -1647.189 11206400
-1369.5236 1041.2966 -1655.8066 11206400
-1370.7834 1057.894 -1665.0459 11206400
1183.3436 251.70493 -1164.9304 43775
-1470.1016 484.02386 -1491.1683 11206400
-1463.0792 493.71231 -1488.2731 11206400
-1456.9628 503.81509 -1485.4141 11206400
-1455.0011 514.88007 -1487.5791 11206400
-1454.1008 526.3559 -1489.2014 11206400
-1456.7306 539.50507 -1497.9434 11206400
-1465.9849 555.43353 -1511.3982 11206400
-1432.8724 894.81689 -1629.147 11206400
-1412.6287 899.01978 -1614.3281 11206400
-1400.9521 905.99933 -1606.6365 11206400
-1390.7528 917.28339 -1606.3568 11206400
-1384.9526 930.51294 -1607.0745 11206400
-1431.0605 979.92114 -1672.1438 11206400
-1412.8911 982.87799 -1658.3933 11206400
-1398.9985 988.41888 -1650.1798 11206400
-1388.6777 996.17438 -1646.8878 11206400
-1379.5957 1004.761 -1645.2708 11206400
-1373.9739 1018.1117 -1647.1021 11206400
-1369.8805 1030.6237 -1652.1051 11206400
-1368.969 1045.8546 -1660.7477 11206400
-1374.9319 1065.941 -1675.9888 11206400
-1476.9684 481.57935 -1499.3087 11206400
-1464.6694 490.81055 -1490.2623 11206400
-1458.2457 504.10187 -1488.8137 11206400
-1454.2059 515.85406 -1488.7394 11206400
-1453.7579 528.59924 -1492.7762 11206400
-1457.8983 543.59601 -1502.1007 11206400
-1430.1461 894.63971 -1627.6079 11206400
-1410.6945 899.11926 -1614.6674 11206400
-1398.8385 906.34332 -1609.5792 11206400
-1389.8887 919.39252 -1608.6357 11206400
-1384.5845 931.80768 -1610.0999 11206400
-1426.6908 979.74396 -1669.2139 11206400
-1409.8643 983.58472 -1659.2531 11206400
-1394.9312 990.36487 -1650.4392 11206400
-1385.8058 998.95166 -1647.6243 11206400
-1377.2432 1010.7488 -1648.9053 11206400
-1372.093 1022.6389 -1650.6219 11206400
-1369.0769 1036.4055 -1657.2258 11206400
-1368.9028 1053.5144 -1668.069 11206400
-1386.1327 1082.7325 -1697.0421 11206400
-1483.1169 475.41785 -1505.8657 11206400
-1471.531 483.39856 -1496.7324 11206400
-1463.676 492.6636 -1492.6418 11206400
-1456.8939 503.63455 -1489.575 11206400
-1454.6125 517.09766 -1491.9425 11206400
-1453.34 529.55151 -1494.8612 11206400
-1459.2961 545.39246 -1506.1401 11206400
-1428.3857 893.34747 -1627.8474 11206400
-1410.0186 898.68842 -1616.2169 11206400
-1396.1683 908.8017 -1609.7916 11206400
-1387.4111 923.69269 -1610.3268 11206400
-1385.5938 936.73883 -1615.7352 11206400
-1422.8735 980.33795 -1670.8267 11206400
-1405.9583 984.27087 -1658.1307 11206400
-1391.9036 992.43567 -1651.7507 11206400
-1382.6522 1000.9141 -1650.377 11206400
-1376.1553 1013.2021 -1651.0435 11206400
-1371.3168 1025.541 -1654.0752 11206400
-1368.3026 1038.9177 -1660.3236 11206400
-1370.3723 1055.9006 -1671.4019 11206400
-1476.9031 480.14825 -1503.141 11206400
-1464.7627 489.43649 -1494.6512 11206400
-1458.6152 499.53827 -1492.7222 11206400
-1453.9094 511.98563 -1491.0826 11206400
-1453.373 524.83203 -1495.0548 11206400
-1457.3527 541.96069 -1503.9401 11206400
-1468.8208 558.60345 -1521.4497 11206400
-1422.2056 893.66052 -1625.7542 11206400
-1406.1624 899.45721 -1616.4163 11206400
-1394.9963 909.56268 -1611.097 11206400
-1387.8231 923.96704 -1613.1239 11206400
-1385.2777 936.33118 -1618.8314 11206400
-1424.5883 979.90887 -1674.364 11206400
-1405.8781 984.21466 -1661.5402 11206400
-1392.9225 990.34503 -1653.4412 11206400
-1384.876 999.49213 -1652.1078 11206400
-1376.4576 1008.5491 -1651.6259 11206400
-1371.7783 1020.7687 -1654.0546 11206400
-1367.3517 1038.1958 -1661.5581 11206400
-1369.6991 1056.8473 -1673.3699 11206400
-1471.9907 482.45563 -1501.9049 11206400
-1462.944 491.48077 -1495.7614 11206400
-1457.8303 501.61273 -1494.0869 11206400
-1453.8462 511.96332 -1493.1647 11206400
-1453.3071 524.80817 -1497.1396 11206400
-1456.3087 540.61938 -1506.7266 11206400
-1465.8937 556.36322 -1519.7781 11206400
-1420.9114 892.84735 -1626.6135 11206400
-1408.0449 899.14038 -1620.272 11206400
-1396.3696 907.78796 -1612.2025 11206400
-1387.9222 919.62286 -1613.5079 11206400
-1385.224 933.78259 -1618.3374 11206400
-1425.9695 979.24866 -1675.5869 11206400
-1405.4216 983.8952 -1663.5521 11206400
-1393.5922 990.82117 -1656.618 11206400
-1384.1454 998.96484 -1653.6139 11206400
-1376.7676 1008.7761 -1654.5352 11206400
-1371.3655 1022.0967 -1656.884 11206400
-1368.3417 1035.849 -1663.5013 11206400
-1368.1906 1052.757 -1674.4501 11206400
-1384.3657 1081.1407 -1702.0851 11206400
-1472.5321 482.63309 -1504.6206 11206400
-1463.4677 491.50058 -1498.5465 11206400
-1458.0354 501.68326 -1496.4486 11206400
-1454.6613 512.25037 -1496.1522 11206400
-1452.9697 525.94647 -1501.089 11206400
-1457.0653 541.85382 -1510.1472 11206400
-1467.4449 558.0802 -1524.4044 11206400
-1417.7919 892.21692 -1626.3783 11206400
-1405.5913 899.09198 -1620.4191 11206400
-1394.6333 907.80243 -1615.1328 11206400
-1388.3307 919.89343 -1616.3066 11206400
-1386.223 934.45599 -1621.8354 11206400
-1426.2626 979.25031 -1680.6511 11206400
-1409.704 983.47296 -1668.8 11206400
-1395.658 989.27185 -1661.8379 11206400
-1385.5284 996.93628 -1656.4092 11206400
-1378.1327 1006.9345 -1657.249 11206400
-1372.4335 1018.3972 -1658.2773 11206400
-1369.5393 1032.0128 -1664.8993 11206400
-1367.6716 1045.9015 -1672.5685 11206400
-1374.8854 1067.1735 -1688.6254 11206400
1173.451 249.60069 -1165.3191 43775
-1480.7832 476.70514 -1512.4917 11206400
-1468.3708 484.7027 -1504.0051 11206400
-1460.8149 494.19659 -1499.6737 11206400
-1456.3143 504.685 -1498.5498 11206400
-1454.0861 515.81158 -1499.5081 11206400
-1453.2643 530.78687 -1505.1281 11206400
-1459.6239 547.90857 -1514.9707 11206400
-1431.9122 889.83472 -1638.03 11206400
-1413.3533 893.59052 -1625.47 11206400
-1402.301 900.97021 -1619.6437 11206400
-1393.1285 909.86841 -1618.5692 11206400
-1386.5302 923.1062 -1618.7477 11206400
-1386.4747 937.14032 -1627.3944 11206400
-1420.0764 980.01788 -1677.4116 11206400
-1402.5356 984.48096 -1666.2141 11206400
-1390.7003 993.18744 -1661.0758 11206400
-1380.5365 1000.9971 -1658.1273 11206400
-1375.207 1012.5041 -1659.5875 11206400
-1370.0121 1024.3607 -1661.9199 11206400
-1367.3429 1038.1891 -1668.8949 11206400
-1368.4143 1054.1825 -1678.6832 11206400
-1384.4471 1082.7004 -1709.7864 11206400
-1484.5669 475.88266 -1518.3685 11206400
-1470.8285 483.16779 -1508.1213 11206400
-1462.3156 492.20569 -1502.1646 11206400
-1456.7938 502.19324 -1500.2113 11206400
-1453.5679 512.9621 -1500.9872 11206400
-1453.9379 528.50653 -1505.9968 11206400
-1457.4347 543.26398 -1514.7357 11206400
-1467.8475 559.52075 -1529.515 11206400
-1419.9684 890.54865 -1631.9944 11206400
-1406.9773 896.75006 -1624.5298 11206400
-1395.1558 903.95715 -1619.418 11206400
-1389.7985 914.93359 -1620.5839 11206400
-1384.5704 928.71558 -1622.5256 11206400
-1428.004 979.03442 -1686.6146 11206400
-1411.6748 983.03748 -1674.1362 11206400
-1396.0288 987.72552 -1664.4541 11206400
-1385.5352 995.53046 -1660.5481 11206400
-1378.0505 1005.054 -1661.0394 11206400
-1372.1669 1016.5684 -1661.6274 11206400
-1368.2507 1029.3975 -1667.0022 11206400
-1367.1268 1044.2393 -1675.3419 11206400
-1374.8342 1067.1338 -1693.4276 11206400
-1482.3745 476.12006 -1517.7142 11206400
-1469.5886 483.69849 -1509.1597 11206400
-1461.7744 493.1156 -1504.3989 11206400
-1457.3716 503.79965 -1503.1256 11206400
-1452.8314 513.95557 -1502.7931 11206400
-1453.7764 529.55267 -1508.3651 11206400
-1457.1519 544.591 -1517.1106 11206400
-1422.0482 889.38385 -1634.832 11206400
-1406.7832 895.1098 -1626.3185 11206400
-1397.5021 903.57776 -1623.6255 11206400
-1389.6294 913.29535 -1622.3685 11206400
-1386.2286 928.67053 -1625.8669 11206400
-1433.4479 979.94183 -1694.0875 11206400
-1413.3954 981.62091 -1676.8126 11206400
-1397.7513 986.13251 -1667.9659 11206400
-1387.9154 994.21771 -1664.0779 11206400
-1378.4266 1002.2926 -1661.8225 11206400
-1373.4767 1013.8714 -1663.4832 11206400
-1368.8766 1026.3782 -1668.9227 11206400
-1367.0989 1040.9012 -1675.436 11206400
-1369.5798 1058.432 -1687.1116 11206400
-1389.0006 1089.6993 -1721.597 11206400
1168.0997 247.52614 -1163.8285 43775
-1478.099 478.34467 -1517.1757 11206400
-1468.2845 487.17325 -1510.0272 11206400
-1459.9706 496.40814 -1505.7832 11206400
-1455.5511 506.61115 -1505.2323 11206400
-1452.4697 518.37524 -1505.635 11206400
-1454.1245 534.57971 -1513.705 11206400
-1459.4268 550.06989 -1523.6934 11206400
-1434.7874 887.2417 -1646.9564 11206400
-1414.3059 890.02319 -1631.8983 11206400
-1403.1263 897.32532 -1626.968 11206400
-1394.4453 906.34869 -1623.9934 11206400
-1388.3218 917.01721 -1622.6777 11206400
-1385.3109 930.75366 -1628.7527 11206400
-1424.9164 978.32599 -1688.9192 11206400
-1409.6705 983.24817 -1678.2778 11206400
-1393.9404 987.85315 -1669.4202 11206400
-1384.0992 995.9079 -1665.5288 11206400
-1376.3513 1005.633 -1664.8177 11206400
-1371.8163 1017.9393 -1667.0969 11206400
-1367.4083 1030.2015 -1671.7806 11206400
-1366.3944 1044.9247 -1679.5225 11206400
-1374.6538 1066.9939 -1698.2471 11206400
-1481.2629 476.85962 -1521.8584 11206400
-1468.3755 484.54779 -1512.7859 11206400
-1461.0566 494.27835 -1508.7216 11206400
-1455.2755 504.32495 -1506.2664 11206400
-1452.8955 515.23248 -1506.8751 11206400
-1452.933 530.50806 -1513.564 11206400
-1458.3901 547.28552 -1523.6855 11206400
-1419.4417 887.7536 -1636.6934 11206400
-1405.3518 894.19897 -1629.3438 11206400
-1396.0146 902.61603 -1626.7264 11206400
-1389.2914 913.07312 -1626.6462 11206400
-1386.884 927.56927 -1632.5209 11206400
-1433.1818 979.55774 -1698.5405 11206400
-1412.4711 980.97894 -1680.5435 11206400
-1397.718 986.10907 -1672.7311 11206400
-1387.3058 993.78107 -1668.1389 11206400
-1379.3767 1002.9834 -1667.9192 11206400
-1372.8743 1013.4268 -1667.5437 11206400
-1367.7555 1025.5376 -1672.3605 11206400
-1366.9934 1040.8209 -1680.2948 11206400
-1369.2433 1058.1719 -1691.556 11206400
-1387.3324 1088.3906 -1724.4839 11206400
-1475.7596 481.02838 -1520.0332 11206400
-1464.3083 489.28467 -1511.7732 11206400
-1457.9021 499.29404 -1509.4065 11206400
-1454.3619 509.95206 -1509.2584 11206400
-1451.2213 522.64154 -1509.9419 11206400
-1454.5319 538.53186 -1519.7804 11206400
-1465.89 557.48883 -1536.1365 11206400
-1415.0625 888.9848 -1636.5283 11206400
-1403.6354 896.13477 -1631.7605 11206400
-1394.5323 905.07251 -1628.0624 11206400
-1388.1104 915.34912 -1629.0913 11206400
-1386.7432 930.17297 -1634.4484 11206400
-1427.7596 978.86688 -1696.2191 11206400
-1409.5282 981.54266 -1681.3976 11206400
-1394.8862 986.71643 -1672.7352 11206400
-1385.2216 995.10382 -1669.797 11206400
-1377.6414 1004.7556 -1670.2882 11206400
-1371.9899 1016.4372 -1671.1602 11206400
-1368.3881 1029.2954 -1676.8293 11206400
-1366.4072 1043.6897 -1684.2836 11206400
-1372.0109 1063.4658 -1699.3055 11206400
1162.3555 246.30891 -1163.1135 43775
-1472.5536 482.48349 -1519.9673 11206400
-1463.2024 491.41153 -1513.5828 11206400
-1457.1063 501.36362 -1510.7745 11206400
-1453.7163 511.76099 -1510.5541 11206400
-1453.0089 525.80469 -1516.4169 11206400
-1455.3312 542.47992 -1523.6132 11206400
-1413.4612 887.97888 -1637.0294 11206400
-1402.4055 895.34955 -1632.6775 11206400
-1394.323 904.93658 -1630.3174 11206400
-1387.9666 915.25433 -1631.2665 11206400
-1386.6294 931.44617 -1637.2502 11206400
-1422.7061 978.41486 -1694.1584 11206400
-1405.8508 982.38867 -1681.9812 11206400
-1391.2542 987.55341 -1672.551 11206400
-1383.3347 996.96899 -1673.5334 11206400
-1375.8707 1006.701 -1672.5759 11206400
-1370.3334 1018.0613 -1673.5311 11206400
-1367.6025 1031.5834 -1679.494 11206400
-1366.7819 1046.6749 -1688.13 11206400
-1375.0773 1068.8015 -1707.4972 11206400
-1472.9722 481.3699 -1521.9132 11206400
-1463.9713 490.42056 -1515.7311 11206400
-1457.6704 500.30762 -1514.0073 11206400
-1454.2646 511.01422 -1512.9928 11206400
-1453.1393 524.59167 -1516.7118 11206400
-1454.7628 540.8385 -1525.4524 11206400
-1467.4657 559.37518 -1542.5193 11206400
-1431.1787 883.30353 -1652.2048 11206400
-1410.6605 889.2403 -1638.1888 11206400
-1400.2357 896.80133 -1634.3132 11206400
-1392.8798 906.47095 -1631.983 11206400
-1387.6206 917.70056 -1634.1846 11206400
-1387.4821 932.01898 -1640.7725 11206400
-1420.6578 978.61206 -1695.0492 11206400
-1404.4918 983.04309 -1684.1613 11206400
-1390.6849 988.75421 -1675.0283 11206400
-1382.1753 997.341 -1672.9851 11206400
-1375.3861 1007.5612 -1674.4548 11206400
-1369.8612 1020.7709 -1676.8379 11206400
-1365.7885 1033.7098 -1682.2327 11206400
-1365.4232 1048.9613 -1690.3807 11206400
-1378.2069 1074.6301 -1715.8951 11206400
-1469.2467 484.8353 -1522.4171 11206400
-1460.6525 494.1416 -1517.1527 11206400
-1454.9279 504.0499 -1514.6906 11206400
-1452.8362 515.21143 -1515.653 11206400
-1451.849 530.11224 -1521.307 11206400
-1457.5659 546.9762 -1530.5819 11206400
-1435.698 881.9173 -1657.0177 11206400
-1414.6158 887.19177 -1642.4534 11206400
-1401.5067 894.7757 -1636.3309 11206400
-1393.2776 904.07037 -1633.6879 11206400
-1387.9703 915.25677 -1635.9706 11206400
-1386.9871 928.98798 -1640.9122 11206400
-1424.241 977.8623 -1700.4659 11206400
-1407.3949 981.66083 -1687.824 11206400
-1393.0394 987.2146 -1680.5437 11206400
-1383.7682 995.4679 -1676.0663 11206400
-1375.4739 1006.4106 -1677.0715 11206400
-1370.0028 1017.8157 -1677.9475 11206400
-1366.1208 1030.4657 -1682.6689 11206400
-1364.8529 1045.1978 -1690.604 11206400
-1374.1508 1068.0814 -1711.2617 11206400
-1470.0812 483.86063 -1523.9175 11206400
-1462.1198 493.07599 -1520.0782 11206400
-1456.7126 503.41711 -1517.8911 11206400
-1453.4044 514.15833 -1518.7449 11206400
-1451.5771 528.75159 -1521.4698 11206400
-1456.3612 545.40979 -1531.5741 11206400
-1419.5682 883.29535 -1647.5537 11206400
-1406.2434 890.60577 -1638.5344 11206400
-1396.7642 898.92712 -1635.5452 11206400
-1390.0786 909.39825 -1636.7346 11206400
-1386.7126 921.69342 -1641.2657 11206400
-1439.3838 980.35822 -1716.1287 11206400
-1415.2526 979.29626 -1694.4703 11206400
-1398.968 983.57941 -1685.0226 11206400
-1387.8018 990.91858 -1679.4198 11206400
-1379.9261 1000.3527 -1679.0338 11206400
-1373.5048 1011.0477 -1679.1759 11206400
-1367.8613 1022.7525 -1681.257 11206400
-1365.3297 1036.4563 -1688.1909 11206400
-1366.3195 1052.5687 -1698.1188 11206400
-1383.2694 1083.2758 -1731.6686 11206400
-1475.1554 480.83145 -1530.5237 11206400
-1463.6328 490.30716 -1522.0824 11206400
-1457.6749 500.30917 -1520.5588 11206400
-1453.5996 510.78055 -1518.9855 11206400
-1451.1097 522.44385 -1520.8185 11206400
-1454.4662 537.08063 -1530.338 11206400
-1464.6775 555.74225 -1545.1962 11206400
-1414.6067 884.54126 -1645.3147 11206400
-1403.0031 891.38269 -1640.1761 11206400
-1394.5454 900.33997 -1636.6608 11206400
-1388.959 911.13953 -1639.423 11206400
-1387.6372 924.99542 -1646.0354 11206400
-1434.6813 978.76697 -1713.7145 11206400
-1411.6262 978.58972 -1694.0573 11206400
-1398.5266 984.87268 -1687.34 11206400
-1386.5801 991.65283 -1681.2772 11206400
-1378.4386 1000.8882 -1681.218 11206400
-1372.1396 1011.6664 -1682.4823 11206400
-1368.1218 1024.174 -1684.8832 11206400
-1365.4437 1037.7805 -1691.9869 11206400
-1366.464 1054.1416 -1703.5804 11206400
-1382.7928 1082.9026 -1733.5636 11206400
-1475.8785 479.65839 -1532.8993 11206400
-1463.2018 490.16275 -1523.8242 11206400
-1457.3136 500.18515 -1522.3691 11206400
-1452.5687 510.4183 -1520.0929 11206400
-1451.6202 522.62762 -1523.5432 11206400
-1453.5702 538.17584 -1532.0853 11206400
-1464.5868 556.83215 -1548.1637 11206400
-1424.8894 879.42188 -1654.4344 11206400
-1410.0886 885.86011 -1645.0675 11206400
-1399.601 893.55896 -1641.3291 11206400
-1391.6218 904.32324 -1639.5156 11206400
-1386.6697 915.73505 -1642.074 11206400
-1424.7582 978.01599 -1708.4893 11206400
-1406.2062 980.83173 -1693.8523 11206400
-1392.9719 987.16681 -1687.8898 11206400
-1382.9657 994.89062 -1682.3408 11206400
-1375.5115 1004.8192 -1683.2629 11206400
-1369.8888 1016.305 -1684.2262 11206400
-1365.656 1028.8813 -1689.2841 11206400
-1364.498 1043.2667 -1696.639 11206400
-1371.3918 1064.2507 -1713.8634 11206400
1150.7772 244.8933 -1162.9479 43775
-1471.2375 482.05231 -1531.917 11206400
-1462.0389 493.04871 -1526.7122 11206400
-1456.0999 503.20532 -1523.8157 11206400
-1453.1079 513.89636 -1525.0944 11206400
-1451.6322 527.51086 -1527.8262 11206400
-1456.1329 544.05109 -1538.2515 11206400
-1427.0262 878.09869 -1657.1368 11206400
-1411.2285 884.87854 -1648.0321 11206400
-1399.9479 892.08112 -1642.4055 11206400
-1392.3695 901.96429 -1642.1705 11206400
-1387.5547 913.26593 -1643.9812 11206400
-1388.8486 928.88324 -1654.0698 11206400
-1427.1948 976.87134 -1711.8042 11206400
-1407.2014 979.72223 -1695.6594 11206400
-1393.8486 985.98242 -1688.5693 11206400
-1383.6818 993.99762 -1684.983 11206400
-1376.1077 1003.637 -1685.4717 11206400
-1370.5592 1015.1734 -1686.3549 11206400
-1365.9913 1029.134 -1692.1309 11206400
-1363.972 1042.8645 -1698.589 11206400
-1370.6989 1063.7128 -1715.4628 11206400
-1482.5121 475.06689 -1541.8784 11206400
-1467.222 486.66425 -1531.0414 11206400
-1459.1398 496.90546 -1526.2454 11206400
-1453.2471 506.74637 -1525.3645 11206400
-1451.3264 519.06525 -1526.3196 11206400
-1452.8013 532.98712 -1531.3583 11206400
-1458.5833 548.31671 -1544.3708 11206400
-1415.7734 880.93408 -1652.7872 11206400
-1403.4109 888.81189 -1647.1929 11206400
-1394.4744 897.45349 -1642.2874 11206400
-1389.1863 908.62427 -1645.1748 11206400
-1387.3822 922.13849 -1651.6897 11206400
-1435.7585 977.8891 -1721.847 11206400
-1413.6262 978.1709 -1702.4508 11206400
-1396.978 983.58142 -1692.6444 11206400
-1385.4668 990.85657 -1687.3562 11206400
-1377.026 1001.0743 -1686.8141 11206400
-1369.5847 1014.4517 -1687.5804 11206400
-1365.8727 1027.4033 -1693.2778 11206400
-1364.1964 1041.7935 -1701.0557 11206400
-1369.5203 1061.3269 -1715.8907 11206400
-1482.6669 476.05688 -1544.6918 11206400
-1464.9639 485.91519 -1530.885 11206400
-1457.6498 497.64606 -1527.4272 11206400
-1452.5763 513.70837 -1528.9312 11206400
-1450.97 526.16809 -1532.1843 11206400
-1454.604 539.66895 -1537.9733 11206400
-1429.5024 876.41302 -1663.2866 11206400
-1411.6709 882.70551 -1651.3755 11206400
-1400.6266 889.8728 -1647.0021 11206400
-1393.0507 899.1853 -1644.3947 11206400
-1387.8282 910.20703 -1647.4337 11206400
-1388.6321 927.00488 -1655.8728 11206400
-1426.8019 976.60236 -1716.2617 11206400
-1407.7168 978.87958 -1700.976 11206400
-1393.9434 986.04944 -1693.71 11206400
-1382.5496 992.98291 -1688.4987 11206400
-1375.2173 1002.7852 -1687.9834 11206400
-1369.6482 1016.1265 -1691.2109 11206400
-1365.5061 1028.5627 -1696.2787 11206400
-1364.0437 1044.3707 -1704.2861 11206400
-1372.2689 1066.4077 -1723.7684 11206400
-1475.386 479.49829 -1541.3793 11206400
-1463.1215 489.97952 -1532.6287 11206400
-1456.7372 499.9873 -1529.521 11206400
-1452.7694 510.332 -1529.1686 11206400
-1451.7322 525.18494 -1535.0632 11206400
-1453.8036 538.10376 -1541.2642 11206400
-1461.579 554.40594 -1553.1498 11206400
-1424.5994 876.41669 -1661.532 11206400
-1409.2941 883.66553 -1652.8916 11206400
-1399.3147 891.48853 -1648.6625 11206400
-1392.5157 901.86908 -1649.3408 11206400
-1386.5411 914.12366 -1651.0328 11206400
-1420.6729 976.81555 -1713.9917 11206400
-1403.6042 980.61816 -1701.3859 11206400
-1389.2572 987.53864 -1692.7186 11206400
-1380.988 996.28308 -1691.098 11206400
-1373.4241 1007.5405 -1692.5751 11206400
-1367.8491 1020.904 -1695.0439 11206400
-1364.0052 1033.8026 -1700.8319 11206400
-1363.2952 1048.7821 -1710.1263 11206400
-1480.7391 477.78763 -1547.9916 11206400
-1465.025 487.96255 -1535.9941 11206400
-1458.3878 497.89804 -1532.6025 11206400
-1452.4303 507.86789 -1532.2953 11206400
-1450.4742 521.11603 -1533.1028 11206400
-1452.1354 533.69006 -1540.4026 11206400
-1457.6213 549.23145 -1550.7704 11206400
-1418.1346 876.75616 -1658.9445 11206400
-1405.7876 884.474 -1654.1682 11206400
-1396.295 892.76801 -1649.8204 11206400
-1390.2286 903.41791 -1649.855 11206400
-1387.1675 916.06378 -1654.6794 11206400
-1422.3628 976.37177 -1718.0901 11206400
-1404.8291 979.6712 -1705.6002 11206400
-1390.8237 985.44421 -1697.333 11206400
-1382.2981 994.41034 -1693.8251 11206400
-1373.9832 1003.7028 -1693.6919 11206400
-1369.8003 1016.2394 -1696.2709 11206400
-1364.0538 1027.4689 -1700.6608 11206400
-1363.238 1042.3032 -1707.4714 11206400
-1369.5869 1062.85 -1724.1249 11206400
1142.2271 242.15817 -1161.4458 43775
-1489.6991 473.59296 -1557.1473 11206400
-1472.5647 482.33243 -1544.4668 11206400
-1460.2888 493.86227 -1536.634 11206400
-1453.9979 503.72772 -1533.592 11206400
-1451.5513 514.59875 -1534.2844 11206400
-1450.7174 527.17841 -1538.0321 11206400
-1453.3181 540.14246 -1546.2531 11206400
-1430.3831 872.80579 -1669.6719 11206400
-1412.0487 879.93158 -1657.212 11206400
-1401.163 887.19958 -1653.9407 11206400
-1392.958 896.29065 -1650.0227 11206400
-1388.0051 907.85175 -1653.2617 11206400
-1389.1331 923.30219 -1663.4738 11206400
-1440.7634 979.88348 -1737.6899 11206400
-1414.7451 977.14062 -1714.7401 11206400
-1398.6414 981.54694 -1703.0927 11206400
-1387.0745 988.79395 -1697.036 11206400
-1378.7511 997.68677 -1696.7723 11206400
-1371.7494 1007.9314 -1695.6841 11206400
-1367.4188 1020.5829 -1699.5546 11206400
-1363.5684 1033.4716 -1705.3517 11206400
-1362.6357 1048.2748 -1714.2219 11206400
1141.2793 242.98663 -1163.4792 43775
-1488.8752 474.58875 -1558.9065 11206400
-1468.6494 485.8876 -1544.5317 11206400
-1458.3752 497.89374 -1537.1504 11206400
-1453.6403 508.29099 -1536.9583 11206400
-1450.5298 521.13599 -1537.5778 11206400
-1452.1787 533.70599 -1544.8885 11206400
-1457.978 549.36591 -1555.77 11206400
-1429.0558 871.99591 -1670.5232 11206400
-1412.1166 878.47089 -1660.4777 11206400
-1401.8273 885.92615 -1656.0424 11206400
-1393.3889 896.56787 -1652.9084 11206400
-1387.7726 907.69965 -1655.5225 11206400
-1435.569 977.56055 -1734.1008 11206400
-1412.9771 977.521 -1713.9991 11206400
-1397.5717 982.39697 -1705.321 11206400
-1386.7339 989.95496 -1700.0374 11206400
-1377.9403 998.71112 -1698.6692 11206400
-1371.3051 1009.2254 -1698.5321 11206400
-1365.7622 1020.9785 -1703.1967 11206400
-1363.3903 1034.7775 -1707.9598 11206400
-1363.5577 1050.2324 -1716.9653 11206400
1139.2137 242.54686 -1163.0472 43775
-1477.8965 477.96576 -1552.6317 11206400
-1463.8868 488.83109 -1543.4568 11206400
-1456.3395 499.69443 -1539.2029 11206400
-1451.6156 510.86469 -1539.2911 11206400
-1450.2695 523.39825 -1540.3109 11206400
-1452.8215 536.31506 -1548.6169 11206400
-1461.03 554.19769 -1561.6724 11206400
-1421.4404 872.78296 -1668.1241 11206400
-1408.3248 880.42499 -1659.4089 11206400
-1398.4424 888.29657 -1656.361 11206400
-1391.3373 898.07941 -1654.3817 11206400
-1387.4706 909.97253 -1659.0565 11206400
-1425.1328 975.45996 -1726.7932 11206400
-1408.0211 979.09119 -1713.7844 11206400
-1392.4993 983.42639 -1703.0774 11206400
-1382.424 991.28632 -1700.0825 11206400
-1374.4817 1000.6349 -1699.7727 11206400
-1368.9656 1012.165 -1702.6323 11206400
-1364.2926 1026.0116 -1706.0205 11206400
-1362.8248 1040.5393 -1714.1139 11206400
-1369.0297 1062.2073 -1730.9113 11206400
-1473.9664 480.2872 -1551.6931 11206400
-1460.0326 491.12531 -1541.7151 11206400
-1454.3604 502.44629 -1540.8846 11206400
-1451.4932 514.57812 -1540.8566 11206400
-1451.0349 527.13599 -1544.9656 11206400
-1453.8972 540.35767 -1553.5569 11206400
-1421.2039 872.6377 -1668.9674 11206400
-1406.9454 879.56268 -1660.3287 11206400
-1397.4366 887.65771 -1657.5518 11206400
-1391.7629 898.35413 -1657.2694 11206400
-1387.8317 910.20929 -1661.8765 11206400
-1431.4835 976.38641 -1734.8859 11206400
-1409.9512 977.22797 -1717.9279 11206400
-1395.5901 982.60413 -1708.2378 11206400
-1383.6156 990.73584 -1702.6873 11206400
-1376.2212 1000.2872 -1703.0955 11206400
-1369.2334 1010.5364 -1704.6559 11206400
-1365.0641 1023.3173 -1708.2933 11206400
-1363.0632 1037.4154 -1714.5452 11206400
-1364.4437 1054.0466 -1725.1086 11206400
-1469.0679 483.21469 -1550.7681 11206400
-1459.2434 494.60034 -1544.7429 11206400
-1453.9515 504.80292 -1543.0437 11206400
-1450.8014 517.62274 -1543.7391 11206400
-1450.41 529.42896 -1548.7246 11206400
-1454.3625 543.23041 -1556.6414 11206400
-1429.2462 868.92041 -1676.627 11206400
-1413.155 875.17633 -1665.9985 11206400
-1402.3763 882.13977 -1660.8485 11206400
-1394.7915 891.8067 -1660.0956 11206400
-1389.0289 902.63831 -1660.4858 11206400
-1387.932 916.3772 -1667.5923 11206400
-1420.8459 975.13013 -1728.5321 11206400
-1404.2485 979.26636 -1716.2124 11206400
-1390.5493 985.24976 -1709.4111 11206400
-1381.1028 993.34906 -1704.6179 11206400
-1373.0796 1002.8403 -1704.8357 11206400
-1368.33 1014.9451 -1706.7196 11206400
-1363.5016 1027.0529 -1711.2566 11206400
-1361.7102 1041.1351 -1718.03 11206400
-1369.3971 1064.176 -1737.8977 11206400
-1479.0708 478.34558 -1560.584 11206400
-1464.2965 488.9679 -1549.525 11206400
-1455.1343 501.46469 -1544.994 11206400
-1450.0959 512.67438 -1544.0764 11206400
-1449.6177 525.67767 -1548.7678 11206400
-1452.5667 538.91309 -1553.8904 11206400
-1467.4534 560.33881 -1577.0962 11206400
-1422.5674 869.34937 -1674.182 11206400
-1408.9045 875.16174 -1666.3586 11206400
-1400.1636 883.56079 -1661.9597 11206400
-1392.4048 892.72864 -1661.6031 11206400
-1388.1289 904.51538 -1663.4648 11206400
-1416.2175 975.35278 -1726.9834 11206400
-1400.4996 979.84845 -1716.2607 11206400
-1388.1837 986.57477 -1708.734 11206400
-1379.6469 995.31555 -1709.1675 11206400
-1371.7386 1004.6868 -1706.8047 11206400
-1365.7888 1015.9041 -1710.1598 11206400
-1362.4644 1030.9905 -1714.9408 11206400
-1361.4823 1045.7262 -1722.6279 11206400
-1480.1272 477.43353 -1563.1078 11206400
-1465.1438 487.8461 -1551.7593 11206400
-1455.5479 499.42282 -1547.2407 11206400
-1451.2432 513.07996 -1547.5211 11206400
-1449.2345 524.28137 -1550.3047 11206400
-1451.1431 537.11902 -1556.5457 11206400
-1459.7443 552.58997 -1567.3977 11206400
-1436.5687 865.84375 -1685.6658 11206400
-1419.642 870.18005 -1673.5532 11206400
-1407.3617 876.82312 -1666.0839 11206400
-1397.4871 884.87207 -1664.2189 11206400
-1390.6975 896.15601 -1664.5736 11206400
-1387.5673 908.8952 -1667.4744 11206400
-1412.4153 977.13239 -1725.8467 11206400
-1395.7106 981.08875 -1715.5039 11206400
-1384.8986 988.64478 -1710.2029 11206400
-1377.2029 998.1767 -1710.1754 11206400
-1370.0052 1008.2687 -1709.3311 11206400
-1364.7864 1021.475 -1712.864 11206400
-1361.3507 1034.4639 -1718.9559 11206400
-1363.719 1053.4868 -1731.8125 11206400
-1483.1643 476.05939 -1567.8436 11206400
-1467.2361 485.26361 -1556.5159 11206400
-1458.3342 497.72369 -1550.5251 11206400
-1451.0154 510.49677 -1549.8572 11206400
-1450.0037 521.88824 -1550.957 11206400
-1451.1764 534.44342 -1557.4353 11206400
-1457.4681 549.01385 -1568.7968 11206400
-1420.6915 868.203 -1675.6635 11206400
-1408.1744 874.70819 -1670.4558 11206400
-1399.2731 882.99884 -1665.6869 11206400
-1392.8827 893.0351 -1666.9606 11206400
-1387.7766 904.28577 -1667.8322 11206400
-1416.2491 975.37451 -1732.1627 11206400
-1400.3811 979.7655 -1721.0586 11206400
-1388.0182 986.45715 -1713.4509 11206400
-1378.222 994.2876 -1712.3237 11206400
-1370.7963 1005.6127 -1711.6708 11206400
-1365.7345 1019.3257 -1714.7987 11206400
-1361.3628 1031.7999 -1719.983 11206400
-1361.8434 1048.7061 -1729.7052 11206400
-1469.6705 483.4129 -1559.3051 11206400
-1458.027 494.18805 -1552.5078 11206400
-1452.4413 506.30884 -1551.3038 11206400
-1449.5924 518.28992 -1551.2794 11206400
-1450.5667 530.74725 -1558.5624 11206400
-1454.9608 544.56647 -1566.0563 11206400
-1430.6002 863.93054 -1684.536 11206400
-1416.0131 869.4505 -1675.032 11206400
-1404.2924 876.59412 -1670.0593 11206400
-1395.9324 885.20026 -1668.0248 11206400
-1390.3408 895.92621 -1668.9395 11206400
-1387.9669 909.15698 -1672.9194 11206400
-1411.995 976.84161 -1730.302 11206400
-1395.7546 981.11975 -1720.6648 11206400
-1384.3762 988.27185 -1714.6465 11206400
-1376.2366 997.47638 -1713.8973 11206400
-1368.288 1009.6356 -1715.8177 11206400
-1363.6112 1022.0215 -1718.8291 11206400
-1361.2218 1036.0139 -1724.75 11206400
-1362.978 1054.5846 -1739.0559 11206400
-1469.7227 482.33713 -1561.5603 11206400
-1459.1434 493.31903 -1555.6777 11206400
-1452.5839 506.35852 -1553.6882 11206400
-1449.3997 518.22101 -1553.4543 11206400
-1451.0331 530.91791 -1561.3075 11206400
-1454.8284 544.51697 -1568.1675 11206400
-1434.98 862.26105 -1689.5564 11206400
-1418.4611 867.96014 -1679.0852 11206400
-1405.604 874.23212 -1672.1646 11206400
-1397.1897 882.9953 -1668.7037 11206400
-1391.5793 893.70435 -1669.0984 11206400
-1387.662 905.9184 -1672.9583 11206400
-1414.1748 975.34595 -1734.5764 11206400
-1397.1189 978.88007 -1722.8038 11206400
-1384.8367 986.99805 -1716.4161 11206400
-1376.6002 996.13031 -1716.3586 11206400
-1369.4121 1007.8322 -1715.9812 11206400
-1363.8627 1020.5772 -1721.4576 11206400
-1361.2426 1034.3817 -1726.4167 11206400
-1362.0963 1052.2333 -1737.2302 11206400
-1483.6188 476.20526 -1575.2556 11206400
-1470.0063 483.52335 -1564.304 11206400
-1459.0406 494.53162 -1558.0624 11206400
-1452.1614 507.61734 -1555.6417 11206400
-1450.3995 519.8335 -1557.1908 11206400
-1450.5834 532.01526 -1562.7584 11206400
-1454.8673 545.64661 -1570.4126 11206400
-1435.7543 861.22821 -1694.0682 11206400
-1418.662 865.46893 -1680.201 11206400
-1407.368 872.89935 -1676.0192 11206400
-1398.5142 881.20856 -1671.9154 11206400
-1391.8719 891.06793 -1672.2327 11206400
-1387.8337 902.8075 -1673.7936 11206400
-1417.542 974.46277 -1740.2062 11206400
-1401.4497 978.91296 -1728.5588 11206400
-1388.5465 985.23065 -1720.9103 11206400
-1377.714 992.51587 -1718.2615 11206400
-1371.2914 1004.1567 -1718.6046 11206400
-1364.4556 1016.5388 -1721.9707 11206400
-1360.894 1029.8022 -1725.491 11206400
-1360.723 1044.9352 -1734.1328 11206400
-1481.7366 476.69824 -1576.3152 11206400
-1467.9957 484.11005 -1566.0099 11206400
-1456.819 495.95892 -1559.6868 11206400
-1450.1189 508.15182 -1556.1071 11206400
-1448.9259 520.40259 -1558.3721 11206400
-1449.9335 532.72308 -1565.0878 11206400
-1455.5717 547.02496 -1575.1874 11206400
-1422.637 862.1026 -1685.7427 11206400
-1411.1532 869.45013 -1678.5662 11206400
-1401.3322 877.36395 -1673.5461 11206400
-1393.1097 886.034 -1672.4712 11206400
-1389.1865 897.82318 -1676.0541 11206400
-1388.422 912.12018 -1683.3141 11206400
-1406.4679 976.21124 -1735.1525 11206400
-1392.0829 981.53296 -1724.807 11206400
-1381.6086 989.29877 -1720.2236 11206400
-1373.4935 998.30469 -1719.552 11206400
-1367.168 1012.4587 -1724.1902 11206400
-1362.2028 1024.235 -1725.8031 11206400
-1359.8236 1038.2478 -1732.9513 11206400
-1483.7108 476.07794 -1579.8459 11206400
-1469.4006 483.3241 -1568.1666 11206400
-1458.4221 493.0752 -1561.6316 11206400
-1451.7977 506.0845 -1559.7115 11206400
-1449.3915 520.56982 -1561.1158 11206400
-1450.9856 533.10962 -1568.4769 11206400
-1456.0222 547.19427 -1577.9429 11206400
-1431.6075 858.74078 -1694.2037 11206400
-1417.3774 864.68524 -1683.5144 11206400
-1405.641 871.64117 -1678.6838 11206400
-1397.0079 881.38177 -1675.0496 11206400
-1390.624 891.39832 -1676.3251 11206400
-1387.6554 905.7243 -1680.2394 11206400
-1414.9629 974.28882 -1742.9625 11206400
-1398.6863 978.57971 -1731.5459 11206400
-1384.9081 985.44794 -1723.1538 11206400
-1376.6838 994.38416 -1722.6442 11206400
-1369.3231 1005.9459 -1722.3601 11206400
-1363.271 1018.9119 -1727.4073 11206400
-1360.1061 1032.0791 -1731.2181 11206400
-1479.0662 476.93442 -1578.048 11206400
-1466.7744 485.11096 -1567.4056 11206400
-1457.4589 496.02243 -1564.9657 11206400
-1451.051 508.47845 -1561.593 11206400
-1449.1887 520.49701 -1563.2938 11206400
-1450.2556 532.84149 -1569.9443 11206400
-1456.2074 547.26392 -1580.4152 11206400
-1422.4637 860.50653 -1689.932 11206400
-1409.9667 867.22784 -1680.7114 11206400
-1401.4327 875.9314 -1678.0039 11206400
-1393.9221 885.23779 -1677.552 11206400
-1388.5051 896.06274 -1677.5603 11206400
-1406.5485 976.26715 -1740.2499 11206400
-1390.8573 980.66882 -1728.252 11206400
-1382.0875 989.44086 -1725.6575 11206400
-1372.9497 997.7077 -1723.7023 11206400
-1365.6814 1011.3578 -1727.2762 11206400
-1361.3739 1025.2472 -1731.0521 11206400
-1359.2833 1039.0732 -1737.5149 11206400
-1478.0052 477.84412 -1580.0291 11206400
-1466.0713 485.97021 -1570.4634 11206400
-1456.6095 496.98032 -1566.7144 11206400
-1450.3776 510.2724 -1565 11206400
-1449.0846 521.40063 -1565.7552 11206400
-1451.3428 534.34625 -1573.6199 11206400
-1456.4183 548.61835 -1583.6794 11206400
-1420.8839 859.55084 -1690.4849 11206400
-1409.475 866.92542 -1682.5427 11206400
-1400.7069 875.47766 -1679.5481 11206400
-1393.1406 884.74146 -1679.0237 11206400
-1389.141 896.47308 -1680.7443 11206400
-1407.9907 975.66901 -1741.9443 11206400
-1393.2299 980.74274 -1732.7554 11206400
-1382.1196 988.06201 -1727.6842 11206400
-1373.4894 996.89398 -1726.9694 11206400
-1365.968 1011.57 -1730.2913 11206400
-1360.9512 1023.294 -1731.8385 11206400
-1358.7878 1037.2504 -1738.9908 11206400
-1475.8396 478.39456 -1579.9242 11206400
-1465.2 486.77267 -1572.2898 11206400
-1456.0682 496.79568 -1568.537 11206400
-1449.8392 510.08301 -1566.8213 11206400
-1449.2117 521.44635 -1568.1464 11206400
-1450.2809 533.95532 -1574.7313 11206400
-1455.0244 548.09332 -1584.4413 11206400
-1436.8655 856.09833 -1703.4419 11206400
-1418.6547 859.68933 -1690.8853 11206400
-1408.1108 867.57562 -1684.6107 11206400
-1399.0383 875.74066 -1682.7629 11206400
-1392.3721 885.37695 -1681.2882 11206400
-1388.9742 897.4967 -1685.5232 11206400
-1390.2012 981.60321 -1732.7374 11206400
-1379.9999 989.34735 -1729.3436 11206400
-1370.8326 1000.9978 -1729.2296 11206400
-1364.5037 1014.745 -1733.512 11206400
-1360.3572 1027.3455 -1736.498 11206400
-1475.0764 479.08627 -1581.8281 11206400
-1465.252 487.72574 -1574.6082 11206400
-1456.5236 496.95102 -1571.2859 11206400
-1450.6244 510.35922 -1569.9263 11206400
-1448.0295 522.43256 -1569.6105 11206400
-1451.0953 535.51947 -1578.6333 11206400
-1456.8533 551.33557 -1589.4836 11206400
-1437.1016 854.74615 -1705.8826 11206400
-1419.6406 858.79877 -1693.8716 11206400
-1408.7839 866.50037 -1686.5627 11206400
-1399.4884 874.71613 -1682.9215 11206400
-1392.4739 885.44171 -1683.8313 11206400
-1389.63 899.8111 -1689.6326 11206400
-1389.9839 981.44977 -1734.9604 11206400
-1379.5283 988.80914 -1731.2881 11206400
-1371.3196 999.7417 -1731.5309 11206400
-1364.7958 1012.1205 -1734.8156 11206400
-1360.4573 1024.5569 -1737.3665 11206400
-1476.139 478.49161 -1584.7975 11206400
-1463.9821 486.36804 -1575.5088 11206400
-1457.4948 496.03464 -1574.0338 11206400
-1450.4801 508.12192 -1570.0854 11206400
-1447.767 519.82928 -1570.7167 11206400
-1450.5869 532.80499 -1579.4587 11206400
-1455.267 546.75128 -1588.6021 11206400
-1434.1012 852.96167 -1706.082 11206400
-1418.8376 858.31299 -1695.3497 11206400
-1407.2283 865.35767 -1687.1877 11206400
-1398.4777 875.38971 -1684.6713 11206400
-1390.8617 884.4165 -1684.3027 11206400
-1388.0527 896.90131 -1689.2577 11206400
-1389.2505 980.93195 -1736.5404 11206400
-1379.3123 988.65417 -1733.5085 11206400
-1370.8787 999.42029 -1733.465 11206400
-1364.6525 1013.231 -1735.54 11206400
-1359.6379 1025.1658 -1738.9086 11206400
-1480.3713 477.35529 -1590.9926 11206400
-1467.4153 485.16684 -1581.7831 11206400
-1457.8517 493.97241 -1574.911 11206400
-1451.5459 505.8407 -1573.0546 11206400
-1449.1466 516.72034 -1573.6884 11206400
-1448.9937 528.75415 -1578.9269 11206400
-1452.6165 542.41919 -1586.641 11206400
-1465.0854 559.27338 -1604.5186 11206400
-1433.5397 852.62762 -1706.7208 11206400
-1417.1868 857.31427 -1695.9773 11206400
-1407.0282 865.23462 -1689.3762 11206400
-1397.9685 873.76617 -1685.9362 11206400
-1391.9993 884.0166 -1687.4897 11206400
-1388.6167 895.94574 -1689.861 11206400
-1380.9613 987.23395 -1736.3628 11206400
-1371.6826 998.1944 -1736.0531 11206400
-1364.5867 1011.9654 -1739.5464 11206400
-1476.4951 478.60703 -1589.7461 11206400
-1463.3555 486.15988 -1579.3711 11206400
-1456.204 495.59537 -1577.3221 11206400
-1451.616 508.51981 -1574.7827 11206400
-1448.9318 519.15033 -1578.3983 11206400
-1449.8198 531.57721 -1582.5334 11206400
-1453.5812 545.00494 -1592.0015 11206400
-1423.45 853.66388 -1701.6619 11206400
-1410.9729 860.5921 -1692.9324 11206400
-1400.866 868.68018 -1690.0729 11206400
-1394.1835 878.29272 -1688.675 11206400
-1390.8521 890.22852 -1692.9999 11206400
-1384.1362 983.50061 -1741.1255 11206400
-1374.5807 992.66406 -1737.6304 11206400
-1367.5509 1004.644 -1740.2046 11206400
-1491.5585 473.8689 -1605.1072 11206400
-1470.2133 481.24936 -1587.51 11206400
-1461.4169 490.34351 -1581.2694 11206400
-1454.7264 500.0762 -1577.8302 11206400
-1450.3925 511.37183 -1578.1995 11206400
-1448.3531 522.39246 -1579.1167 11206400
-1450.4962 535.29834 -1587.0861 11206400
-1457.1241 550.16077 -1598.0315 11206400
-1427.6272 850.59406 -1704.8693 11206400
-1413.6689 857.77991 -1696.7211 11206400
-1403.451 865.63275 -1692.1454 11206400
-1397.8602 876.12244 -1692.6316 11206400
-1390.1699 885.28931 -1690.9845 11206400
-1389.4393 899.49817 -1699.0424 11206400
-1376.8285 990.07458 -1739.2838 11206400
-1368.0802 1003.2166 -1740.6119 11206400
-1486.189 474.67416 -1601.3372 11206400
-1470.0563 481.19794 -1589.6249 11206400
-1460.0284 489.87766 -1583.2538 11206400
-1454.5765 500.02472 -1579.939 11206400
-1450.7273 510.2392 -1581.4681 11206400
-1448.2758 521.10956 -1580.868 11206400
-1448.4003 533.26294 -1586.4766 11206400
-1455.5778 548.1424 -1598.8777 11206400
-1424.7517 851.47559 -1705.578 11206400
-1411.2854 857.62958 -1696.8271 11206400
-1401.6899 866.21698 -1694.0034 11206400
-1396.452 876.73236 -1694.1757 11206400
-1390.6757 887.29706 -1695.939 11206400
-1390.8937 902.14423 -1703.5713 11206400
-1377.3407 987.24109 -1741.1863 11206400
-1493.4032 473.35214 -1612.6183 11206400
-1470.7421 480.17386 -1591.9509 11206400
-1462.2247 489.3671 -1585.9895 11206400
-1454.4489 498.7337 -1582.4174 11206400
-1450.2759 509.14337 -1582.9324 11206400
-1447.9916 519.90991 -1584.7302 11206400
-1449.4272 532.37909 -1589.7407 11206400
-1453.4912 546.08411 -1598.2731 11206400
-1430.2625 847.71106 -1711.9116 11206400
-1416.6912 853.6781 -1701.4332 11206400
-1406.3835 861.8678 -1698.0514 11206400
-1397.5338 870.51605 -1695.7909 11206400
-1392.1987 881.14935 -1696.6389 11206400
-1389.9307 893.96552 -1702.2559 11206400
-1485.6061 474.48798 -1607.7899 11206400
-1464.3842 485.25479 -1590.4192 11206400
-1456.4261 495.51483 -1586.7672 11206400
-1451.3176 505.76114 -1584.3158 11206400
-1448.9194 516.63934 -1584.9517 11206400
-1448.2849 531.0144 -1589.984 11206400
-1453.4526 544.95673 -1601.2008 11206400
-1426.6611 848.35101 -1710.6981 11206400
-1413.1044 854.65936 -1703.364 11206400
-1403.4857 863.05621 -1698.5911 11206400
-1395.8853 872.27753 -1696.9401 11206400
-1390.7046 883.0069 -1698.153 11206400
-1389.7792 896.69574 -1706.0999 11206400
-1464.8787 484.32819 -1592.8926 11206400
-1457.197 493.75061 -1588.0021 11206400
-1452.3113 503.92264 -1586.6375 11206400
-1449.1937 514.54449 -1586.7751 11206400
-1448.7925 526.16382 -1590.4375 11206400
-1450.6663 538.84155 -1598.1436 11206400
-1461.8164 556.58087 -1614.2848 11206400
-1431.0645 845.40765 -1715.0271 11206400
-1416.2094 850.61395 -1706.5702 11206400
-1405.0704 859.58142 -1699.7391 11206400
-1397.8324 869.2146 -1699.4159 11206400
-1390.9166 878.65735 -1697.7284 11206400
-1390.4279 892.77795 -1706.9294 11206400
-1464.6406 485.33978 -1594.0563 11206400
-1455.5267 494.27356 -1588.675 11206400
-1452.3335 505.02228 -1589.4691 11206400
-1447.0106 514.55145 -1588.7639 11206400
-1448.2787 527.0777 -1592.5513 11206400
-1451.5479 540.43628 -1601.259 11206400
-1427.0931 845.64728 -1715.5734 11206400
-1417.726 854.11603 -1710.1062 11206400
-1404.4204 860.47919 -1701.7709 11206400
-1400.6686 872.46869 -1707.1106 11206400
-1391.5011 880.70782 -1703.2871 11206400
-1390.8282 894.54285 -1709.5765 11206400
-1465.3267 485.56711 -1597.2527 11206400
-1455.3657 494.21887 -1590.7867 11206400
-1451.9098 504.87494 -1591.2936 11206400
-1447.4375 514.70331 -1591.5243 11206400
-1447.3918 526.75488 -1594.0208 11206400
-1449.5569 539.69507 -1601.3656 11206400
-1461.4635 556.44647 -1618.5464 11206400
-1425.1947 844.5224 -1715.7583 11206400
-1413.6364 851.65222 -1707.6287 11206400
-1404.3735 860.4505 -1704.3281 11206400
-1398.3528 870.8396 -1706.6436 11206400
-1390.4659 880.05261 -1704.4708 11206400
-1390.2776 894.18872 -1710.2096 11206400
-1467.1163 481.32605 -1600.0913 11206400
-1458.7445 491.47144 -1595.6356 11206400
-1453.1454 501.71591 -1593.1112 11206400
-1449.546 512.16699 -1593.6205 11206400
-1447.1713 523.22089 -1596.0789 11206400
-1449.3236 536.12897 -1602.7739 11206400
-1457.2786 552.45477 -1615.3522 11206400
-1431.9471 841.67554 -1721.271 11206400
-1417.8967 847.19409 -1712.1542 11206400
-1407.5209 855.15717 -1707.037 11206400
-1397.4808 864.91241 -1703.288 11206400
-1393.6392 876.27057 -1706.4686 11206400
-1389.3236 887.93494 -1709.6567 11206400
-1456.7595 492.20111 -1596.5294 11206400
-1450.6747 503.35477 -1594.151 11206400
-1449.1139 514.36127 -1595.946 11206400
-1448.2671 529.59076 -1602.0155 11206400
-1451.4791 542.94739 -1608.2577 11206400
-1434.3037 838.81104 -1725.8469 11206400
-1421.295 845.1601 -1716.7335 11206400
-1408.3882 851.80688 -1709.9404 11206400
-1400.1354 860.81055 -1705.6863 11206400
-1393.6593 870.88666 -1705.3197 11206400
-1391.2115 883.32874 -1711.2017 11206400
-1458.3356 491.33371 -1599.9391 11206400
-1450.894 502.18445 -1596.2633 11206400
-1447.6052 512.73053 -1595.8965 11206400
-1447.2972 525.46381 -1600.366 11206400
-1450.7916 540.15472 -1609.8176 11206400
-1426.5599 841.2713 -1721.359 11206400
-1413.9886 847.80499 -1715.0814 11206400
-1404.394 856.39441 -1709.6849 11206400
-1396.5114 865.79456 -1709.4652 11206400
-1390.4568 875.75836 -1708.6316 11206400
-1392.0981 891.02612 -1719.4069 11206400
-1461.3018 487.6561 -1603.4919 11206400
-1454.2145 499.74591 -1600.391 11206400
-1448.334 509.24261 -1599.5416 11206400
-1447.1547 520.54907 -1602.7932 11206400
-1448.9728 538.05457 -1610.2172 11206400
-1425.7917 840.81824 -1722.91 11206400
-1413.9996 847.81158 -1717.5649 11206400
-1403.344 855.75409 -1710.8672 11206400
-1396.5259 865.80359 -1711.9446 11206400
-1391.2229 876.24091 -1712.1995 11206400
-1391.6671 890.56171 -1721.2443 11206400
-1450.2277 501.95377 -1600.1296 11206400
-1447.2617 515.8916 -1601.5699 11206400
-1447.3665 527.84564 -1607.2855 11206400
-1434.9827 835.33392 -1732.0979 11206400
-1419.5422 840.07043 -1721.37 11206400
-1409.6151 848.12518 -1714.6414 11206400
-1400.4139 856.54779 -1711.4845 11206400
-1394.903 867.20715 -1713.2501 11206400
-1391.2141 878.84534 -1715.447 11206400
-1450.983 500.96933 -1602.3853 11206400
-1446.5688 519.24261 -1606.376 11206400
-1452.8329 545.67749 -1620.9559 11206400
