# .PCD v.7 - Point Cloud Data file format
VERSION .7
FIELDS x y z rgba
SIZE 4 4 4 4
TYPE F F F U
COUNT 1 1 1 1
WIDTH 1180
HEIGHT 1
VIEWPOINT 0000 0000 30000 0 0 0 1
POINTS 1180
DATA ascii
-24316.727 12988.472 14284.323 16711680
-24196.727 12868.472 14164.323 16711680
-24196.727 12868.472 14284.323 16711680
-24196.727 12988.472 14164.323 16711680
-24196.727 12988.472 14284.323 16711680
-24196.727 12988.472 14404.323 16711680
-24076.727 12748.472 14164.323 16711680
-24076.727 12748.472 14284.323 16711680
-23956.727 12628.472 14164.323 16711680
-23956.727 12628.472 14284.323 16711680
-23956.727 12748.472 14164.323 16711680
-23956.727 12748.472 14284.323 16711680
-23956.727 12628.472 14404.323 16711680
-23956.727 12748.472 14404.323 16711680
-24076.727 12868.472 14164.323 16711680
-24076.727 12868.472 14284.323 16711680
-24196.727 12868.472 14764.323 16711680
-24196.727 12988.472 14764.323 16711680
-24196.727 12988.472 14884.323 16711680
-24196.727 12988.472 15004.323 16711680
-24076.727 12748.472 14764.323 16711680
-23956.727 12628.472 14764.323 16711680
-23956.727 12748.472 14764.323 16711680
-23956.727 12748.472 14884.323 16711680
-23956.727 12748.472 15004.323 16711680
-24076.727 12868.472 14764.323 16711680
-24076.727 12988.472 14764.323 16711680
-23956.727 12868.472 14764.323 16711680
-24076.727 12868.472 14884.323 16711680
-24076.727 12868.472 15004.323 16711680
-24076.727 12988.472 14884.323 16711680
-24076.727 12988.472 15004.323 16711680
-23956.727 12868.472 14884.323 16711680
-23956.727 12868.472 15004.323 16711680
-24196.727 12988.472 15124.323 16711680
-24076.727 12868.472 15124.323 16711680
-24076.727 12988.472 15124.323 16711680
-24796.727 13468.472 13684.323 16711680
-24676.727 13468.472 13684.323 16711680
-24796.727 13468.472 13924.323 16711680
-24796.727 13468.472 14044.323 16711680
-24556.727 13348.472 13684.323 16711680
-24796.727 13468.472 14164.323 16711680
-24796.727 13468.472 14284.323 16711680
-24796.727 13588.472 13684.323 16711680
-24796.727 13708.472 13684.323 16711680
-24676.727 13588.472 13684.323 16711680
-24796.727 13588.472 13924.323 16711680
-24796.727 13588.472 14044.323 16711680
-24796.727 13588.472 14164.323 16711680
-24796.727 13588.472 14284.323 16711680
-24796.727 13588.472 14404.323 16711680
-24316.727 13108.472 14284.323 16711680
-24676.727 13468.472 14764.323 16711680
-24436.727 13108.472 14764.323 16711680
-24436.727 13228.472 14764.323 16711680
-24556.727 13348.472 14764.323 16711680
-24556.727 13468.472 14764.323 16711680
-24436.727 13348.472 14764.323 16711680
-24556.727 13468.472 14884.323 16711680
-24556.727 13468.472 15004.323 16711680
-24436.727 13348.472 14884.323 16711680
-24436.727 13468.472 14884.323 16711680
-24556.727 13468.472 15124.323 16711680
-24676.727 13588.472 14764.323 16711680
-24796.727 13708.472 14884.323 16711680
-24676.727 13588.472 14884.323 16711680
-24676.727 13588.472 15004.323 16711680
-24676.727 13708.472 15004.323 16711680
-24796.727 13828.472 14884.323 16711680
-24556.727 13588.472 15004.323 16711680
-24796.727 13708.472 15124.323 16711680
-24676.727 13588.472 15124.323 16711680
-24676.727 13708.472 15124.323 16711680
-24796.727 13828.472 15124.323 16711680
-24316.727 13108.472 14764.323 16711680
-24316.727 13228.472 14764.323 16711680
-24196.727 13108.472 14764.323 16711680
-24316.727 13108.472 14884.323 16711680
-24316.727 13108.472 15004.323 16711680
-24316.727 13228.472 14884.323 16711680
-24316.727 13228.472 15004.323 16711680
-24196.727 13108.472 14884.323 16711680
-24196.727 13108.472 15004.323 16711680
-24316.727 13108.472 15124.323 16711680
-24196.727 13108.472 15124.323 16711680
-23716.727 12268.472 14044.323 16711680
-23716.727 12388.472 14044.323 16711680
-23596.727 12148.472 13684.323 16711680
-23596.727 12148.472 13804.323 16711680
-23596.727 12268.472 13684.323 16711680
-23596.727 12268.472 13804.323 16711680
-23476.727 12148.472 13684.323 16711680
-23476.727 12148.472 13804.323 16711680
-23476.727 12268.472 13684.323 16711680
-23476.727 12268.472 13804.323 16711680
-23596.727 12148.472 13924.323 16711680
-23596.727 12148.472 14044.323 16711680
-23596.727 12268.472 13924.323 16711680
-23596.727 12268.472 14044.323 16711680
-23476.727 12148.472 13924.323 16711680
-23476.727 12148.472 14044.323 16711680
-23596.727 12388.472 13684.323 16711680
-23596.727 12508.472 13684.323 16711680
-23596.727 12508.472 13804.323 16711680
-23476.727 12388.472 13684.323 16711680
-23476.727 12388.472 13804.323 16711680
-23716.727 12268.472 14164.323 16711680
-23716.727 12268.472 14284.323 16711680
-23836.727 12388.472 14284.323 16711680
-23836.727 12508.472 14164.323 16711680
-23836.727 12508.472 14284.323 16711680
-23716.727 12388.472 14164.323 16711680
-23716.727 12388.472 14284.323 16711680
-23716.727 12388.472 14404.323 16711680
-23596.727 12148.472 14164.323 16711680
-23596.727 12148.472 14284.323 16711680
-23596.727 12268.472 14164.323 16711680
-23596.727 12268.472 14284.323 16711680
-23476.727 12148.472 14164.323 16711680
-23476.727 12148.472 14284.323 16711680
-23596.727 12268.472 14404.323 16711680
-23836.727 12628.472 13684.323 16711680
-23836.727 12748.472 13684.323 16711680
-23716.727 12628.472 13684.323 16711680
-23716.727 12748.472 13684.323 16711680
-23716.727 12748.472 13804.323 16711680
-23596.727 12628.472 13684.323 16711680
-23596.727 12628.472 13804.323 16711680
-23836.727 12628.472 14164.323 16711680
-23836.727 12628.472 14284.323 16711680
-23716.727 12268.472 14764.323 16711680
-23836.727 12388.472 14764.323 16711680
-23836.727 12508.472 14764.323 16711680
-23716.727 12388.472 14764.323 16711680
-23716.727 12508.472 14764.323 16711680
-23716.727 12388.472 14884.323 16711680
-23716.727 12388.472 15004.323 16711680
-23716.727 12508.472 14884.323 16711680
-23716.727 12508.472 15004.323 16711680
-23596.727 12148.472 14764.323 16711680
-23596.727 12268.472 14764.323 16711680
-23476.727 12148.472 14764.323 16711680
-23476.727 12268.472 14764.323 16711680
-23596.727 12268.472 14884.323 16711680
-23596.727 12268.472 15004.323 16711680
-23476.727 12148.472 14884.323 16711680
-23476.727 12148.472 15004.323 16711680
-23476.727 12268.472 14884.323 16711680
-23476.727 12268.472 15004.323 16711680
-23596.727 12388.472 14764.323 16711680
-23596.727 12388.472 14884.323 16711680
-23596.727 12388.472 15004.323 16711680
-23716.727 12388.472 15124.323 16711680
-23716.727 12508.472 15124.323 16711680
-23596.727 12268.472 15124.323 16711680
-23476.727 12148.472 15124.323 16711680
-23476.727 12268.472 15124.323 16711680
-23596.727 12388.472 15124.323 16711680
-23836.727 12628.472 14764.323 16711680
-23836.727 12628.472 14884.323 16711680
-23356.727 12148.472 14764.323 16711680
-23356.727 12148.472 14884.323 16711680
-23356.727 12148.472 15004.323 16711680
-27076.727 15868.472 15964.323 15204096
-27196.727 15868.472 16204.323 15204096
-27076.727 15868.472 16084.323 15204096
-27076.727 15868.472 16204.323 15204096
-27196.727 15748.472 16324.323 15204096
-27196.727 15748.472 16444.324 15204096
-27196.727 15868.472 16324.323 15204096
-27196.727 15868.472 16444.324 15204096
-27076.727 15868.472 16324.323 15204096
-27076.727 15868.472 16444.324 15204096
-26956.727 15868.472 16324.323 15204096
-26956.727 15868.472 16444.324 15204096
-27196.727 15748.472 16564.324 15204096
-27196.727 15748.472 16684.324 15204096
-27196.727 15868.472 16564.324 15204096
-27196.727 15868.472 16684.324 15204096
-27076.727 15868.472 16564.324 15204096
-27076.727 15868.472 16684.324 15204096
-27196.727 15748.472 16804.324 15204096
-27196.727 15748.472 16924.324 15204096
-27196.727 15868.472 16804.324 15204096
-27196.727 15868.472 16924.324 15204096
-27076.727 15748.472 16924.324 15204096
-27076.727 15868.472 16804.324 15204096
-27076.727 15868.472 16924.324 15204096
-26956.727 15868.472 16564.324 15204096
-26956.727 15868.472 16684.324 15204096
-26956.727 15868.472 16804.324 15204096
-26956.727 15868.472 16924.324 15204096
-27196.727 15748.472 17044.324 15204096
-27076.727 15868.472 17044.324 15204096
-26956.727 15868.472 17044.324 15204096
-23236.727 11548.472 15604.323 16711680
-23236.727 11548.472 15724.323 16711680
-23116.727 11548.472 15604.323 16711680
-22996.727 11428.472 15604.323 16711680
-22996.727 11428.472 15724.323 16711680
-22996.727 11428.472 16204.323 16711680
-23356.727 11668.472 15604.323 16711680
-23356.727 11668.472 15724.323 16711680
-23356.727 11788.472 15724.323 16711680
-23236.727 11668.472 15604.323 16711680
-23236.727 11668.472 15724.323 16711680
-23356.727 11668.472 15844.323 16711680
-23356.727 11788.472 15844.323 16711680
-23236.727 11668.472 15844.323 16711680
-23596.727 12028.472 17164.324 16711680
-23476.727 11908.472 17164.324 16711680
-23476.727 12028.472 17164.324 16711680
-23476.727 12028.472 17404.324 16711680
-23356.727 11788.472 17404.324 16711680
-23236.727 11788.472 17404.324 16711680
-23356.727 11908.472 17404.324 16711680
-23356.727 12028.472 17404.324 16711680
-23236.727 11908.472 17404.324 16711680
-23236.727 12028.472 17404.324 16711680
-23116.727 11788.472 17404.324 16711680
-22996.727 11788.472 17404.324 16711680
-23116.727 11908.472 17404.324 16711680
-23116.727 12028.472 17404.324 16711680
-22996.727 11908.472 17404.324 16711680
-22996.727 12028.472 17404.324 16711680
-23476.727 12028.472 17524.324 16711680
-23356.727 12028.472 17524.324 16711680
-23236.727 11908.472 17524.324 16711680
-23236.727 12028.472 17524.324 16711680
-23116.727 12028.472 17524.324 16711680
-22996.727 12028.472 17524.324 16711680
-25516.727 14308.472 15964.323 16711680
-25516.727 14428.472 15964.323 16711680
-25516.727 14308.472 16084.323 16711680
-25516.727 14308.472 16204.323 16711680
-25516.727 14428.472 16084.323 16711680
-25516.727 14428.472 16204.323 16711680
-25396.727 14428.472 16204.323 16711680
-25516.727 14308.472 16324.323 16711680
-25516.727 14308.472 16444.324 16711680
-25516.727 14428.472 16324.323 16711680
-25516.727 14428.472 16444.324 16711680
-25396.727 14428.472 16324.323 16711680
-25396.727 14428.472 16444.324 16711680
-25516.727 14428.472 16564.324 16711680
-25516.727 14428.472 16684.324 16711680
-25396.727 14428.472 16564.324 16711680
-25396.727 14428.472 16684.324 16711680
-25396.727 14428.472 16804.324 16711680
-25396.727 14428.472 16924.324 16711680
-25516.727 14428.472 17044.324 16711680
-25396.727 14308.472 17044.324 16711680
-25396.727 14428.472 17044.324 16711680
-25396.727 14308.472 17284.324 16711680
-25396.727 14308.472 17404.324 16711680
-25396.727 14428.472 17284.324 16711680
-25396.727 14428.472 17404.324 16711680
-25276.727 14428.472 16924.324 16711680
-25276.727 14428.472 17404.324 16711680
-26356.727 15388.472 17524.324 16711680
-26236.727 15388.472 17524.324 16711680
-26116.727 15388.472 17524.324 16711680
-26236.727 15508.472 17524.324 16711680
-26116.727 15508.472 17524.324 16711680
-26116.727 15508.472 17644.324 16711680
-26116.727 15628.472 17524.324 16711680
-25996.727 15628.472 17524.324 16711680
-25396.727 14308.472 17524.324 16711680
-25396.727 14428.472 17524.324 16711680
-25156.727 14068.472 17524.324 16711680
-25156.727 14188.472 17524.324 16711680
-25276.727 14308.472 17524.324 16711680
-25276.727 14428.472 17524.324 16711680
-25156.727 14308.472 17524.324 16711680
-25156.727 14428.472 17524.324 16711680
-25036.727 14068.472 17524.324 16711680
-25036.727 14188.472 17524.324 16711680
-25156.727 14548.472 17524.324 16711680
-24556.727 12508.472 16324.323 16711680
-24556.727 12508.472 16444.324 16711680
-24436.727 12508.472 16324.323 16711680
-24436.727 12508.472 16444.324 16711680
-24436.727 12628.472 15964.323 16711680
-24436.727 12988.472 15724.323 16711680
-24436.727 12988.472 15844.323 16711680
-24436.727 12988.472 15964.323 16711680
-24436.727 12628.472 16084.323 16711680
-24436.727 12628.472 16204.323 16711680
-24436.727 12628.472 16324.323 16711680
-24436.727 12628.472 16444.324 16711680
-24316.727 12748.472 15724.323 16711680
-24316.727 12628.472 15964.323 16711680
-24316.727 12748.472 15844.323 16711680
-24316.727 12748.472 15964.323 16711680
-24316.727 12868.472 15604.323 16711680
-24316.727 12868.472 15724.323 16711680
-24316.727 12988.472 15724.323 16711680
-24316.727 12868.472 15844.323 16711680
-24316.727 12868.472 15964.323 16711680
-24316.727 12988.472 15844.323 16711680
-24316.727 12988.472 15964.323 16711680
-24316.727 12628.472 16084.323 16711680
-24316.727 12628.472 16204.323 16711680
-24316.727 12748.472 16084.323 16711680
-24316.727 12748.472 16204.323 16711680
-24196.727 12748.472 16084.323 16711680
-24316.727 12628.472 16324.323 16711680
-24316.727 12628.472 16444.324 16711680
-24316.727 12748.472 16324.323 16711680
-24316.727 12748.472 16444.324 16711680
-24316.727 12868.472 16084.323 16711680
-24316.727 12868.472 16204.323 16711680
-24316.727 12868.472 16324.323 16711680
-24556.727 12508.472 16564.324 16711680
-24436.727 12508.472 16564.324 16711680
-24436.727 12508.472 16684.324 16711680
-24556.727 12508.472 16924.324 16711680
-24436.727 12508.472 16804.324 16711680
-24436.727 12508.472 16924.324 16711680
-24436.727 12628.472 16564.324 16711680
-24436.727 12628.472 16684.324 16711680
-24436.727 12628.472 16804.324 16711680
-24436.727 12628.472 16924.324 16711680
-23956.727 12508.472 17284.324 16711680
-24316.727 12628.472 16564.324 16711680
-24316.727 12628.472 16684.324 16711680
-24316.727 12748.472 16564.324 16711680
-24316.727 12748.472 16684.324 16711680
-24316.727 12628.472 16804.324 16711680
-24316.727 12628.472 16924.324 16711680
-24316.727 12748.472 16804.324 16711680
-24316.727 12748.472 16924.324 16711680
-24316.727 12988.472 17404.324 16711680
-24676.727 13468.472 15724.323 16711680
-24676.727 13468.472 15844.323 16711680
-24556.727 13228.472 15724.323 16711680
-24436.727 13108.472 15724.323 16711680
-24556.727 13108.472 15844.323 16711680
-24556.727 13108.472 15964.323 16711680
-24556.727 13228.472 15844.323 16711680
-24556.727 13228.472 15964.323 16711680
-24436.727 13108.472 15844.323 16711680
-24556.727 13348.472 15724.323 16711680
-24556.727 13348.472 15844.323 16711680
-24556.727 13348.472 15964.323 16711680
-24556.727 13228.472 16324.323 16711680
-24436.727 13108.472 16324.323 16711680
-24436.727 13108.472 16444.324 16711680
-24436.727 13228.472 16324.323 16711680
-24436.727 13228.472 16444.324 16711680
-24556.727 13348.472 16084.323 16711680
-24556.727 13348.472 16204.323 16711680
-24556.727 13348.472 16324.323 16711680
-24556.727 13348.472 16444.324 16711680
-24676.727 13588.472 15724.323 16711680
-24676.727 13588.472 15844.323 16711680
-24556.727 13228.472 16924.324 16711680
-24556.727 13348.472 16564.324 16711680
-24556.727 13348.472 16684.324 16711680
-24436.727 13348.472 16564.324 16711680
-24436.727 13348.472 16684.324 16711680
-24436.727 13468.472 16684.324 16711680
-24556.727 13348.472 16804.324 16711680
-24556.727 13348.472 16924.324 16711680
-24436.727 13348.472 16804.324 16711680
-24436.727 13348.472 16924.324 16711680
-24436.727 13468.472 16804.324 16711680
-24556.727 13228.472 17044.324 16711680
-24556.727 13228.472 17284.324 16711680
-24556.727 13228.472 17404.324 16711680
-24436.727 13108.472 17404.324 16711680
-24436.727 13228.472 17284.324 16711680
-24436.727 13228.472 17404.324 16711680
-24556.727 13348.472 17044.324 16711680
-24436.727 13348.472 17044.324 16711680
-24436.727 13348.472 17284.324 16711680
-24436.727 13348.472 17404.324 16711680
-24316.727 13108.472 17404.324 16711680
-24316.727 13348.472 17284.324 16711680
-24316.727 13348.472 17404.324 16711680
-24316.727 13468.472 17404.324 16711680
-24196.727 13468.472 17404.324 16711680
-23836.727 12268.472 17164.324 16711680
-23716.727 12148.472 17164.324 16711680
-23716.727 12268.472 17164.324 16711680
-23716.727 12268.472 17284.324 16711680
-23836.727 12388.472 17284.324 16711680
-23836.727 12508.472 17284.324 16711680
-23716.727 12388.472 17284.324 16711680
-23596.727 12148.472 17164.324 16711680
-23596.727 12148.472 17284.324 16711680
-23596.727 12148.472 17404.324 16711680
-23596.727 12268.472 17284.324 16711680
-23596.727 12268.472 17404.324 16711680
-23476.727 12148.472 17404.324 16711680
-23476.727 12268.472 17284.324 16711680
-23476.727 12268.472 17404.324 16711680
-23476.727 12508.472 17404.324 16711680
-23356.727 12148.472 17404.324 16711680
-23356.727 12268.472 17404.324 16711680
-23236.727 12148.472 17404.324 16711680
-23356.727 12388.472 17404.324 16711680
-23356.727 12508.472 17404.324 16711680
-23116.727 12148.472 17404.324 16711680
-22996.727 12148.472 17404.324 16711680
-24316.727 12988.472 17524.324 16711680
-24436.727 13108.472 17524.324 16711680
-24436.727 13228.472 17524.324 16711680
-24436.727 13348.472 17524.324 16711680
-24316.727 13108.472 17524.324 16711680
-24316.727 13228.472 17524.324 16711680
-24196.727 13228.472 17524.324 16711680
-24316.727 13348.472 17524.324 16711680
-24196.727 13348.472 17524.324 16711680
-24196.727 13468.472 17524.324 16711680
-23956.727 13228.472 17524.324 16711680
-23956.727 13228.472 17644.324 16711680
-24076.727 13468.472 17644.324 16711680
-23956.727 13348.472 17524.324 16711680
-23956.727 13348.472 17644.324 16711680
-23956.727 13468.472 17644.324 16711680
-24076.727 13468.472 17764.324 16711680
-23956.727 13348.472 17764.324 16711680
-23956.727 13468.472 17764.324 16711680
-24076.727 13588.472 17644.324 16711680
-24076.727 13588.472 17764.324 16711680
-23476.727 12148.472 17524.324 16711680
-23476.727 12268.472 17524.324 16711680
-23716.727 12988.472 17644.324 16711680
-23476.727 12748.472 17524.324 16711680
-23476.727 12748.472 17644.324 16711680
-23596.727 12868.472 17644.324 16711680
-23596.727 12988.472 17524.324 16711680
-23596.727 12988.472 17644.324 16711680
-23476.727 12868.472 17524.324 16711680
-23476.727 12868.472 17644.324 16711680
-23476.727 12868.472 17764.324 16711680
-23356.727 12148.472 17524.324 16711680
-23356.727 12268.472 17524.324 16711680
-23236.727 12148.472 17524.324 16711680
-23236.727 12268.472 17524.324 16711680
-23356.727 12388.472 17524.324 16711680
-23236.727 12508.472 17524.324 16711680
-23236.727 12508.472 17644.324 16711680
-23116.727 12148.472 17524.324 16711680
-23116.727 12268.472 17524.324 16711680
-22996.727 12148.472 17524.324 16711680
-22996.727 12148.472 17644.324 16711680
-22996.727 12268.472 17524.324 16711680
-22996.727 12268.472 17644.324 16711680
-23116.727 12388.472 17524.324 16711680
-23116.727 12388.472 17644.324 16711680
-23116.727 12508.472 17644.324 16711680
-23236.727 12628.472 17644.324 16711680
-23836.727 13108.472 17524.324 16711680
-23836.727 13108.472 17644.324 16711680
-23836.727 13228.472 17524.324 16711680
-23836.727 13228.472 17644.324 16711680
-23716.727 13108.472 17524.324 16711680
-23716.727 13108.472 17644.324 16711680
-23716.727 13228.472 17644.324 16711680
-23836.727 13228.472 17764.324 16711680
-23716.727 13108.472 17764.324 16711680
-23716.727 13228.472 17764.324 16711680
-23836.727 13348.472 17644.324 16711680
-23836.727 13348.472 17764.324 16711680
-23596.727 13108.472 17764.324 16711680
-28156.727 17548.473 16564.324 16711680
-28156.727 17548.473 16684.324 16711680
-28156.727 17548.473 16804.324 16711680
-28156.727 17668.473 16564.324 16711680
-28156.727 17668.473 16684.324 16711680
-28036.727 17668.473 16684.324 16711680
-28156.727 17668.473 16804.324 16711680
-28156.727 17668.473 16924.324 16711680
-28036.727 17668.473 16804.324 16711680
-28036.727 17668.473 16924.324 16711680
-28036.727 17668.473 17044.324 16711680
-27076.727 15988.472 15964.323 15204096
-26956.727 15988.472 15844.323 15204096
-26956.727 15988.472 15964.323 15204096
-27076.727 15988.472 16084.323 15204096
-27076.727 15988.472 16204.323 15204096
-27076.727 15988.472 16324.323 15204096
-27076.727 15988.472 16444.324 15204096
-26956.727 15988.472 16084.323 15204096
-26956.727 15988.472 16204.323 15204096
-26956.727 15988.472 16324.323 15204096
-26956.727 15988.472 16444.324 15204096
-27076.727 15988.472 16924.324 15204096
-26956.727 15988.472 16564.324 15204096
-26956.727 15988.472 16684.324 15204096
-26956.727 15988.472 16804.324 15204096
-26956.727 15988.472 16924.324 15204096
-28156.727 17548.473 17524.324 16711680
-28036.727 17548.473 17524.324 16711680
-28036.727 17548.473 17644.324 16711680
-28036.727 17668.473 17644.324 16711680
-27916.727 17668.473 17524.324 16711680
-27916.727 17668.473 17644.324 16711680
-27796.727 17668.473 17644.324 16711680
-27196.727 16468.473 17524.324 16711680
-27196.727 16468.473 17644.324 16711680
-27076.727 16468.473 17524.324 16711680
-27076.727 16468.473 17644.324 16711680
-27076.727 16588.473 17524.324 16711680
-27076.727 16588.473 17644.324 16711680
-26956.727 16468.473 17644.324 16711680
-26956.727 16588.473 17524.324 16711680
-26956.727 16588.473 17644.324 16711680
-26956.727 16708.473 17644.324 16711680
-13156.727 -13531.528 -1315.6768 9109759
-13156.727 -13411.528 -1315.6768 9109759
-13156.727 -13651.528 -1195.6768 9109759
-13156.727 -13651.528 -835.67676 9109759
-13276.727 -13411.528 -1195.6768 9109759
-13276.727 -13411.528 -1075.6768 9109759
-13156.727 -13531.528 -1195.6768 9109759
-13156.727 -13531.528 -1075.6768 9109759
-13156.727 -13411.528 -1195.6768 9109759
-13156.727 -13411.528 -1075.6768 9109759
-13276.727 -13411.528 -955.67676 9109759
-13276.727 -13411.528 -835.67676 9109759
-13156.727 -13531.528 -955.67676 9109759
-13156.727 -13531.528 -835.67676 9109759
-13156.727 -13411.528 -955.67676 9109759
-13156.727 -13411.528 -835.67676 9109759
-13156.727 -13651.528 -715.67676 9109759
-13156.727 -13651.528 -595.67676 9109759
-13276.727 -13411.528 -715.67676 9109759
-13276.727 -13411.528 -595.67676 9109759
-13156.727 -13531.528 -715.67676 9109759
-13156.727 -13531.528 -595.67676 9109759
-13156.727 -13411.528 -715.67676 9109759
-13156.727 -13411.528 -595.67676 9109759
-13276.727 -13411.528 -475.67676 9109759
-13276.727 -13411.528 -355.67676 9109759
-13156.727 -13531.528 -475.67676 9109759
-13156.727 -13531.528 -355.67676 9109759
-13156.727 -13411.528 -475.67676 9109759
-13156.727 -13411.528 -355.67676 9109759
-13036.727 -13651.528 -715.67676 9109759
-13276.727 -13531.528 -235.67676 9109759
-13276.727 -13411.528 -235.67676 9109759
-13276.727 -13411.528 -115.67676 9109759
-13156.727 -13531.528 -235.67676 9109759
-13156.727 -13411.528 -235.67676 9109759
-13156.727 -12931.528 -115.67676 16759040
-13156.727 -12931.528 4.3232422 16759040
-13156.727 -12931.528 124.32324 16759040
-13156.727 -12811.528 -115.67676 16759040
-13156.727 -12811.528 4.3232422 16759040
-13156.727 -12811.528 124.32324 16759040
-12196.727 -12811.528 -115.67676 16711680
-12316.727 -12691.528 4.3232422 16711680
-12316.727 -12691.528 124.32324 16711680
-12196.727 -12811.528 4.3232422 16711680
-12196.727 -12811.528 124.32324 16711680
-12196.727 -12691.528 4.3232422 16711680
-12196.727 -12691.528 124.32324 16711680
-11836.727 -11131.528 4.3232422 16711680
-11836.727 -11131.528 124.32324 16711680
-11836.727 -11011.528 124.32324 16711680
-11596.727 -10651.528 4.3232422 16711680
-11596.727 -10651.528 124.32324 16711680
-11596.727 -10531.528 124.32324 16711680
-11476.727 -10651.528 4.3232422 16711680
-11476.727 -10651.528 124.32324 16711680
-8836.7266 -7891.5283 4.3232422 9109759
-8836.7266 -7891.5283 124.32324 9109759
-8716.7266 -7891.5283 -115.67676 9109759
-8716.7266 -8011.5283 4.3232422 9109759
-8716.7266 -8011.5283 124.32324 9109759
-8716.7266 -7891.5283 4.3232422 9109759
-8716.7266 -7891.5283 124.32324 9109759
-8236.7266 -8611.5283 -1195.6768 9109759
-8236.7266 -8611.5283 -1075.6768 9109759
-8116.7266 -8731.5283 -1195.6768 9109759
-8116.7266 -8731.5283 -1075.6768 9109759
-8116.7266 -8611.5283 -1195.6768 9109759
-8116.7266 -8611.5283 -1075.6768 9109759
-8116.7266 -8731.5283 -955.67676 9109759
-8116.7266 -8731.5283 -835.67676 9109759
-7996.7266 -8851.5283 -1195.6768 9109759
-7996.7266 -8851.5283 -1075.6768 9109759
-7876.7266 -8971.5283 -1075.6768 9109759
-7876.7266 -8851.5283 -1195.6768 9109759
-7876.7266 -8851.5283 -1075.6768 9109759
-7996.7266 -8851.5283 -955.67676 9109759
-7996.7266 -8851.5283 -835.67676 9109759
-7876.7266 -8971.5283 -955.67676 9109759
-7876.7266 -8971.5283 -835.67676 9109759
-7876.7266 -8851.5283 -955.67676 9109759
-7876.7266 -8851.5283 -835.67676 9109759
-7996.7266 -8731.5283 -1195.6768 9109759
-7996.7266 -8731.5283 -1075.6768 9109759
-7996.7266 -8611.5283 -1195.6768 9109759
-7876.7266 -8731.5283 -1195.6768 9109759
-7876.7266 -8611.5283 -1195.6768 9109759
-7996.7266 -8731.5283 -955.67676 9109759
-7996.7266 -8731.5283 -835.67676 9109759
-7756.7266 -8851.5283 -1195.6768 9109759
-7756.7266 -8731.5283 -1195.6768 9109759
-7876.7266 -8491.5283 -1195.6768 9109759
-8236.7266 -8611.5283 -595.67676 9109759
-8116.7266 -8731.5283 -715.67676 9109759
-8116.7266 -8731.5283 -595.67676 9109759
-8116.7266 -8611.5283 -715.67676 9109759
-8116.7266 -8611.5283 -595.67676 9109759
-8236.7266 -8611.5283 -475.67676 9109759
-8116.7266 -8731.5283 -475.67676 9109759
-8116.7266 -8731.5283 -355.67676 9109759
-8116.7266 -8611.5283 -475.67676 9109759
-8116.7266 -8611.5283 -355.67676 9109759
-8236.7266 -8731.5283 -115.67676 9109759
-8236.7266 -8611.5283 -235.67676 9109759
-8236.7266 -8611.5283 -115.67676 9109759
-8116.7266 -8731.5283 -235.67676 9109759
-8116.7266 -8731.5283 -115.67676 9109759
-8116.7266 -8611.5283 -235.67676 9109759
-8116.7266 -8611.5283 -115.67676 9109759
-8116.7266 -8731.5283 4.3232422 9109759
-8116.7266 -8731.5283 124.32324 9109759
-8116.7266 -8611.5283 4.3232422 9109759
-8116.7266 -8611.5283 124.32324 9109759
-7996.7266 -8851.5283 -715.67676 9109759
-7996.7266 -8851.5283 -595.67676 9109759
-7876.7266 -8971.5283 -715.67676 9109759
-7876.7266 -8971.5283 -595.67676 9109759
-7876.7266 -8851.5283 -715.67676 9109759
-7876.7266 -8851.5283 -595.67676 9109759
-7996.7266 -8851.5283 -475.67676 9109759
-7996.7266 -8851.5283 -355.67676 9109759
-7876.7266 -8971.5283 -475.67676 9109759
-7876.7266 -8971.5283 -355.67676 9109759
-7876.7266 -8851.5283 -475.67676 9109759
-7876.7266 -8851.5283 -355.67676 9109759
-7996.7266 -8731.5283 -715.67676 9109759
-7996.7266 -8731.5283 -595.67676 9109759
-7996.7266 -8731.5283 -475.67676 9109759
-7996.7266 -8731.5283 -355.67676 9109759
-7996.7266 -8851.5283 -235.67676 9109759
-7996.7266 -8851.5283 -115.67676 9109759
-7876.7266 -8971.5283 -235.67676 9109759
-7876.7266 -8971.5283 -115.67676 9109759
-7876.7266 -8851.5283 -235.67676 9109759
-7876.7266 -8851.5283 -115.67676 9109759
-7996.7266 -8851.5283 4.3232422 9109759
-7996.7266 -8851.5283 124.32324 9109759
-7876.7266 -8971.5283 4.3232422 9109759
-7876.7266 -8971.5283 124.32324 9109759
-7876.7266 -8851.5283 4.3232422 9109759
-7876.7266 -8851.5283 124.32324 9109759
-7996.7266 -8731.5283 -235.67676 9109759
-7996.7266 -8731.5283 -115.67676 9109759
-7996.7266 -8731.5283 4.3232422 9109759
-7996.7266 -8731.5283 124.32324 9109759
-7636.7266 -7651.5283 -1195.6768 16711680
-7636.7266 -7651.5283 -1075.6768 16711680
-7636.7266 -7651.5283 -955.67676 16711680
-7636.7266 -7651.5283 -835.67676 16711680
-7996.7266 -7171.5283 -1075.6768 16711680
-7876.7266 -7291.5283 -1075.6768 16711680
-7876.7266 -7171.5283 -1195.6768 16711680
-7876.7266 -7171.5283 -1075.6768 16711680
-7996.7266 -7171.5283 -955.67676 16711680
-7996.7266 -7171.5283 -835.67676 16711680
-7876.7266 -7291.5283 -955.67676 16711680
-7876.7266 -7291.5283 -835.67676 16711680
-7876.7266 -7171.5283 -955.67676 16711680
-7876.7266 -7171.5283 -835.67676 16711680
-7756.7266 -7411.5283 -1195.6768 16711680
-7756.7266 -7411.5283 -1075.6768 16711680
-7636.7266 -7531.5283 -1195.6768 16711680
-7636.7266 -7531.5283 -1075.6768 16711680
-7636.7266 -7411.5283 -1195.6768 16711680
-7636.7266 -7411.5283 -1075.6768 16711680
-7756.7266 -7411.5283 -955.67676 16711680
-7756.7266 -7411.5283 -835.67676 16711680
-7636.7266 -7531.5283 -955.67676 16711680
-7636.7266 -7531.5283 -835.67676 16711680
-7636.7266 -7411.5283 -955.67676 16711680
-7636.7266 -7411.5283 -835.67676 16711680
-7756.7266 -7291.5283 -1195.6768 16711680
-7756.7266 -7291.5283 -1075.6768 16711680
-7756.7266 -7171.5283 -1195.6768 16711680
-7756.7266 -7171.5283 -1075.6768 16711680
-7636.7266 -7291.5283 -1195.6768 16711680
-7636.7266 -7291.5283 -1075.6768 16711680
-7756.7266 -7291.5283 -955.67676 16711680
-7756.7266 -7291.5283 -835.67676 16711680
-7636.7266 -7651.5283 -715.67676 16711680
-7636.7266 -7651.5283 -595.67676 16711680
-7636.7266 -7651.5283 -475.67676 16711680
-7636.7266 -7651.5283 -355.67676 16711680
-7636.7266 -7651.5283 -235.67676 16711680
-7636.7266 -7651.5283 -115.67676 16711680
-7636.7266 -7651.5283 4.3232422 16711680
-7636.7266 -7651.5283 124.32324 16711680
-7996.7266 -7171.5283 -595.67676 16711680
-7876.7266 -7291.5283 -715.67676 16711680
-7876.7266 -7291.5283 -595.67676 16711680
-7876.7266 -7171.5283 -715.67676 16711680
-7876.7266 -7171.5283 -595.67676 16711680
-7876.7266 -7291.5283 -475.67676 16711680
-7876.7266 -7291.5283 -355.67676 16711680
-7876.7266 -7171.5283 -475.67676 16711680
-7876.7266 -7171.5283 -355.67676 16711680
-7756.7266 -7411.5283 -715.67676 16711680
-7756.7266 -7411.5283 -595.67676 16711680
-7636.7266 -7531.5283 -715.67676 16711680
-7636.7266 -7531.5283 -595.67676 16711680
-7636.7266 -7411.5283 -715.67676 16711680
-7636.7266 -7411.5283 -595.67676 16711680
-7756.7266 -7411.5283 -475.67676 16711680
-7756.7266 -7411.5283 -355.67676 16711680
-7636.7266 -7531.5283 -475.67676 16711680
-7636.7266 -7531.5283 -355.67676 16711680
-7636.7266 -7411.5283 -475.67676 16711680
-7636.7266 -7411.5283 -355.67676 16711680
-7756.7266 -7291.5283 -715.67676 16711680
-7756.7266 -7291.5283 -595.67676 16711680
-7756.7266 -7291.5283 -475.67676 16711680
-7756.7266 -7291.5283 -355.67676 16711680
-7996.7266 -7171.5283 -235.67676 16711680
-7996.7266 -7171.5283 -115.67676 16711680
-7876.7266 -7291.5283 -235.67676 16711680
-7876.7266 -7291.5283 -115.67676 16711680
-7876.7266 -7171.5283 -235.67676 16711680
-7876.7266 -7171.5283 -115.67676 16711680
-7756.7266 -7411.5283 -235.67676 16711680
-7756.7266 -7411.5283 -115.67676 16711680
-7636.7266 -7531.5283 -235.67676 16711680
-7636.7266 -7531.5283 -115.67676 16711680
-7636.7266 -7411.5283 -235.67676 16711680
-7636.7266 -7411.5283 -115.67676 16711680
-7636.7266 -7531.5283 4.3232422 16711680
-7636.7266 -7531.5283 124.32324 16711680
-7756.7266 -7291.5283 -235.67676 16711680
-7756.7266 -7291.5283 -115.67676 16711680
-7756.7266 -7171.5283 -235.67676 16711680
-7636.7266 -7291.5283 -235.67676 16711680
-13516.727 -13171.528 604.32324 16759040
-13756.727 -12931.528 964.32324 16759040
-13756.727 -12931.528 1084.3232 16759040
-13636.727 -13051.528 964.32324 16759040
-13636.727 -13051.528 1084.3232 16759040
-13636.727 -12931.528 964.32324 16759040
-13636.727 -12931.528 1084.3232 16759040
-13516.727 -13171.528 724.32324 16759040
-13516.727 -13171.528 844.32324 16759040
-13396.727 -13171.528 724.32324 16759040
-13396.727 -13171.528 844.32324 16759040
-13516.727 -13291.528 964.32324 16759040
-13516.727 -13171.528 964.32324 16759040
-13516.727 -13171.528 1084.3232 16759040
-13396.727 -13291.528 964.32324 16759040
-13396.727 -13291.528 1084.3232 16759040
-13396.727 -13171.528 964.32324 16759040
-13396.727 -13171.528 1084.3232 16759040
-13516.727 -13051.528 844.32324 16759040
-13516.727 -13051.528 964.32324 16759040
-13516.727 -13051.528 1084.3232 16759040
-13756.727 -12931.528 1204.3232 16759040
-13756.727 -12931.528 1324.3232 16759040
-13636.727 -13051.528 1204.3232 16759040
-13636.727 -13051.528 1324.3232 16759040
-13636.727 -12931.528 1204.3232 16759040
-13636.727 -12931.528 1324.3232 16759040
-13756.727 -12931.528 1444.3232 16759040
-13756.727 -12931.528 1564.3232 16759040
-13636.727 -13051.528 1444.3232 16759040
-13636.727 -13051.528 1564.3232 16759040
-13636.727 -12931.528 1444.3232 16759040
-13636.727 -12931.528 1564.3232 16759040
-13516.727 -13291.528 1204.3232 16759040
-13516.727 -13291.528 1324.3232 16759040
-13516.727 -13171.528 1204.3232 16759040
-13516.727 -13171.528 1324.3232 16759040
-13396.727 -13291.528 1204.3232 16759040
-13396.727 -13171.528 1204.3232 16759040
-13396.727 -13171.528 1324.3232 16759040
-13516.727 -13291.528 1444.3232 16759040
-13516.727 -13291.528 1564.3232 16759040
-13516.727 -13171.528 1444.3232 16759040
-13516.727 -13171.528 1564.3232 16759040
-13396.727 -13171.528 1444.3232 16759040
-13396.727 -13171.528 1564.3232 16759040
-13516.727 -13051.528 1204.3232 16759040
-13516.727 -13051.528 1324.3232 16759040
-13516.727 -13051.528 1444.3232 16759040
-13516.727 -13051.528 1564.3232 16759040
-13756.727 -12931.528 1684.3232 16759040
-13756.727 -12931.528 1804.3232 16759040
-13636.727 -13051.528 1684.3232 16759040
-13636.727 -13051.528 1804.3232 16759040
-13636.727 -12931.528 1684.3232 16759040
-13636.727 -12931.528 1804.3232 16759040
-13516.727 -13291.528 1684.3232 16759040
-13516.727 -13171.528 1684.3232 16759040
-13516.727 -13171.528 1804.3232 16759040
-13396.727 -13171.528 1684.3232 16759040
-13516.727 -13051.528 1684.3232 16759040
-13516.727 -13051.528 1804.3232 16759040
-13876.727 -12811.528 964.32324 16759040
-13876.727 -12811.528 1084.3232 16759040
-13876.727 -12691.528 1084.3232 16759040
-13396.727 -12691.528 604.32324 16759040
-13516.727 -12451.528 604.32324 16759040
-13396.727 -12571.528 604.32324 16759040
-13756.727 -12811.528 964.32324 16759040
-13756.727 -12811.528 1084.3232 16759040
-13396.727 -12691.528 724.32324 16759040
-13396.727 -12691.528 844.32324 16759040
-13396.727 -12691.528 964.32324 16759040
-13516.727 -12451.528 724.32324 16759040
-13516.727 -12451.528 844.32324 16759040
-13396.727 -12571.528 724.32324 16759040
-13396.727 -12571.528 844.32324 16759040
-13396.727 -12451.528 844.32324 16759040
-13516.727 -12451.528 964.32324 16759040
-13396.727 -12571.528 964.32324 16759040
-13876.727 -12811.528 1204.3232 16759040
-13876.727 -12811.528 1324.3232 16759040
-13876.727 -12691.528 1204.3232 16759040
-13876.727 -12691.528 1324.3232 16759040
-13876.727 -12811.528 1444.3232 16759040
-13876.727 -12811.528 1564.3232 16759040
-13876.727 -12691.528 1444.3232 16759040
-13876.727 -12691.528 1564.3232 16759040
-13876.727 -12811.528 1684.3232 16759040
-13876.727 -12811.528 1804.3232 16759040
-13876.727 -12691.528 1684.3232 16759040
-13876.727 -12691.528 1804.3232 16759040
-13756.727 -12811.528 1204.3232 16759040
-13756.727 -12811.528 1324.3232 16759040
-13756.727 -12811.528 1444.3232 16759040
-13756.727 -12811.528 1564.3232 16759040
-13756.727 -12811.528 1684.3232 16759040
-13756.727 -12811.528 1804.3232 16759040
-12916.727 -13891.528 724.32324 16759040
-12916.727 -13891.528 844.32324 16759040
-12916.727 -13891.528 964.32324 16759040
-12916.727 -13891.528 1084.3232 16759040
-12916.727 -13891.528 1204.3232 16759040
-12916.727 -13891.528 1324.3232 16759040
-12916.727 -13891.528 1444.3232 16759040
-12916.727 -13891.528 1564.3232 16759040
-12916.727 -13891.528 1684.3232 16759040
-13156.727 -13651.528 364.32324 16759040
-13156.727 -13651.528 484.32324 16759040
-13156.727 -13651.528 604.32324 16759040
-13276.727 -13531.528 364.32324 16759040
-13276.727 -13411.528 364.32324 16759040
-13156.727 -13531.528 364.32324 16759040
-13276.727 -13531.528 484.32324 16759040
-13276.727 -13531.528 604.32324 16759040
-13276.727 -13411.528 484.32324 16759040
-13276.727 -13411.528 604.32324 16759040
-13156.727 -13531.528 484.32324 16759040
-13156.727 -13531.528 604.32324 16759040
-13036.727 -13651.528 484.32324 16759040
-13036.727 -13651.528 604.32324 16759040
-12916.727 -13771.528 604.32324 16759040
-13156.727 -13651.528 724.32324 16759040
-13156.727 -13651.528 844.32324 16759040
-13156.727 -13651.528 964.32324 16759040
-13156.727 -13651.528 1084.3232 16759040
-13276.727 -13531.528 724.32324 16759040
-13276.727 -13531.528 844.32324 16759040
-13276.727 -13411.528 724.32324 16759040
-13276.727 -13411.528 844.32324 16759040
-13156.727 -13531.528 724.32324 16759040
-13156.727 -13531.528 844.32324 16759040
-13276.727 -13531.528 964.32324 16759040
-13276.727 -13531.528 1084.3232 16759040
-13276.727 -13411.528 964.32324 16759040
-13276.727 -13411.528 1084.3232 16759040
-13156.727 -13531.528 964.32324 16759040
-13156.727 -13531.528 1084.3232 16759040
-13036.727 -13771.528 724.32324 16759040
-13036.727 -13771.528 844.32324 16759040
-13036.727 -13651.528 724.32324 16759040
-13036.727 -13651.528 844.32324 16759040
-12916.727 -13771.528 724.32324 16759040
-12916.727 -13771.528 844.32324 16759040
-13036.727 -13771.528 1084.3232 16759040
-13036.727 -13651.528 964.32324 16759040
-13036.727 -13651.528 1084.3232 16759040
-12916.727 -13771.528 964.32324 16759040
-12916.727 -13771.528 1084.3232 16759040
-13156.727 -12931.528 244.32324 16759040
-13156.727 -12931.528 364.32324 16759040
-13156.727 -12931.528 484.32324 16759040
-13156.727 -13651.528 1204.3232 16759040
-13156.727 -13651.528 1324.3232 16759040
-13156.727 -13651.528 1444.3232 16759040
-13156.727 -13651.528 1564.3232 16759040
-13276.727 -13531.528 1204.3232 16759040
-13276.727 -13531.528 1324.3232 16759040
-13276.727 -13411.528 1204.3232 16759040
-13276.727 -13411.528 1324.3232 16759040
-13156.727 -13531.528 1204.3232 16759040
-13156.727 -13531.528 1324.3232 16759040
-13276.727 -13531.528 1444.3232 16759040
-13276.727 -13531.528 1564.3232 16759040
-13276.727 -13411.528 1444.3232 16759040
-13276.727 -13411.528 1564.3232 16759040
-13156.727 -13531.528 1444.3232 16759040
-13156.727 -13531.528 1564.3232 16759040
-13036.727 -13771.528 1204.3232 16759040
-13036.727 -13771.528 1324.3232 16759040
-13036.727 -13651.528 1204.3232 16759040
-13036.727 -13651.528 1324.3232 16759040
-12916.727 -13771.528 1204.3232 16759040
-12916.727 -13771.528 1324.3232 16759040
-13036.727 -13771.528 1444.3232 16759040
-13036.727 -13771.528 1564.3232 16759040
-13036.727 -13651.528 1444.3232 16759040
-13036.727 -13651.528 1564.3232 16759040
-12916.727 -13771.528 1444.3232 16759040
-12916.727 -13771.528 1564.3232 16759040
-13156.727 -13651.528 1684.3232 16759040
-13156.727 -13651.528 1804.3232 16759040
-13276.727 -13531.528 1684.3232 16759040
-13276.727 -13531.528 1804.3232 16759040
-13156.727 -13531.528 1684.3232 16759040
-13156.727 -13531.528 1804.3232 16759040
-13036.727 -13771.528 1684.3232 16759040
-13036.727 -13771.528 1804.3232 16759040
-13036.727 -13651.528 1684.3232 16759040
-13036.727 -13651.528 1804.3232 16759040
-12916.727 -13771.528 1684.3232 16759040
-12916.727 -13771.528 1804.3232 16759040
-13036.727 -13531.528 1804.3232 16759040
-13156.727 -12931.528 1204.3232 16759040
-13156.727 -12931.528 1324.3232 16759040
-13156.727 -12931.528 1444.3232 16759040
-13156.727 -12931.528 1564.3232 16759040
-13156.727 -12931.528 1684.3232 16759040
-13156.727 -12811.528 244.32324 16759040
-13156.727 -12811.528 364.32324 16759040
-13276.727 -12811.528 604.32324 16759040
-13276.727 -12691.528 604.32324 16759040
-13156.727 -12811.528 484.32324 16759040
-13156.727 -12811.528 604.32324 16759040
-13276.727 -12811.528 724.32324 16759040
-13276.727 -12811.528 844.32324 16759040
-13276.727 -12691.528 724.32324 16759040
-13276.727 -12691.528 844.32324 16759040
-13156.727 -12811.528 724.32324 16759040
-13276.727 -12691.528 964.32324 16759040
-11836.727 -11011.528 244.32324 16711680
-11476.727 -10651.528 244.32324 16711680
-11476.727 -10651.528 364.32324 16711680
-8716.7266 -8131.5283 1204.3232 9109759
-8716.7266 -8131.5283 1324.3232 9109759
-8596.7266 -8251.5283 1324.3232 9109759
-8596.7266 -8131.5283 1204.3232 9109759
-8596.7266 -8131.5283 1324.3232 9109759
-8716.7266 -8131.5283 1444.3232 9109759
-8596.7266 -8251.5283 1444.3232 9109759
-8596.7266 -8131.5283 1444.3232 9109759
-8836.7266 -7891.5283 244.32324 9109759
-8836.7266 -7891.5283 364.32324 9109759
-8836.7266 -7891.5283 484.32324 9109759
-8836.7266 -7891.5283 604.32324 9109759
-8716.7266 -8011.5283 244.32324 9109759
-8716.7266 -8011.5283 364.32324 9109759
-8716.7266 -7891.5283 244.32324 9109759
-8716.7266 -7891.5283 364.32324 9109759
-8716.7266 -8011.5283 484.32324 9109759
-8716.7266 -8011.5283 604.32324 9109759
-8716.7266 -7891.5283 484.32324 9109759
-8716.7266 -7891.5283 604.32324 9109759
-8836.7266 -7891.5283 724.32324 9109759
-8836.7266 -7891.5283 844.32324 9109759
-8836.7266 -7891.5283 964.32324 9109759
-8836.7266 -7891.5283 1084.3232 9109759
-8716.7266 -8011.5283 724.32324 9109759
-8716.7266 -8011.5283 844.32324 9109759
-8716.7266 -7891.5283 724.32324 9109759
-8716.7266 -7891.5283 844.32324 9109759
-8716.7266 -8011.5283 964.32324 9109759
-8716.7266 -8011.5283 1084.3232 9109759
-8716.7266 -7891.5283 964.32324 9109759
-8716.7266 -7891.5283 1084.3232 9109759
-8836.7266 -7891.5283 1204.3232 9109759
-8836.7266 -7891.5283 1324.3232 9109759
-8836.7266 -7891.5283 1444.3232 9109759
-8716.7266 -8011.5283 1204.3232 9109759
-8716.7266 -8011.5283 1324.3232 9109759
-8716.7266 -7891.5283 1204.3232 9109759
-8716.7266 -7891.5283 1324.3232 9109759
-8596.7266 -8011.5283 1324.3232 9109759
-8716.7266 -8011.5283 1444.3232 9109759
-8716.7266 -7891.5283 1444.3232 9109759
-8596.7266 -8011.5283 1444.3232 9109759
-8236.7266 -8611.5283 244.32324 9109759
-8116.7266 -8731.5283 244.32324 9109759
-8116.7266 -8731.5283 364.32324 9109759
-8116.7266 -8611.5283 244.32324 9109759
-8116.7266 -8731.5283 484.32324 9109759
-8116.7266 -8731.5283 604.32324 9109759
-8116.7266 -8731.5283 724.32324 9109759
-8116.7266 -8731.5283 844.32324 9109759
-8116.7266 -8731.5283 964.32324 9109759
-8116.7266 -8731.5283 1084.3232 9109759
-7996.7266 -8851.5283 244.32324 9109759
-7996.7266 -8851.5283 364.32324 9109759
-7876.7266 -8971.5283 244.32324 9109759
-7876.7266 -8971.5283 364.32324 9109759
-7876.7266 -8851.5283 244.32324 9109759
-7876.7266 -8851.5283 364.32324 9109759
-7996.7266 -8971.5283 604.32324 9109759
-7996.7266 -8851.5283 484.32324 9109759
-7996.7266 -8851.5283 604.32324 9109759
-7876.7266 -8971.5283 484.32324 9109759
-7876.7266 -8971.5283 604.32324 9109759
-7876.7266 -8851.5283 484.32324 9109759
-7876.7266 -8851.5283 604.32324 9109759
-7996.7266 -8731.5283 244.32324 9109759
-7996.7266 -8731.5283 364.32324 9109759
-7996.7266 -8731.5283 484.32324 9109759
-7996.7266 -8731.5283 604.32324 9109759
-7636.7266 -8731.5283 484.32324 9109759
-7636.7266 -8731.5283 604.32324 9109759
-7636.7266 -8611.5283 484.32324 9109759
-7636.7266 -8611.5283 604.32324 9109759
-7996.7266 -8971.5283 724.32324 9109759
-7996.7266 -8971.5283 844.32324 9109759
-7996.7266 -8851.5283 724.32324 9109759
-7996.7266 -8851.5283 844.32324 9109759
-7876.7266 -8971.5283 724.32324 9109759
-7876.7266 -8971.5283 844.32324 9109759
-7876.7266 -8851.5283 724.32324 9109759
-7876.7266 -8851.5283 844.32324 9109759
-7996.7266 -8971.5283 964.32324 9109759
-7996.7266 -8971.5283 1084.3232 9109759
-7996.7266 -8851.5283 964.32324 9109759
-7996.7266 -8851.5283 1084.3232 9109759
-7876.7266 -8971.5283 964.32324 9109759
-7876.7266 -8971.5283 1084.3232 9109759
-7876.7266 -8851.5283 964.32324 9109759
-7996.7266 -8731.5283 724.32324 9109759
-7996.7266 -8731.5283 844.32324 9109759
-7996.7266 -8731.5283 964.32324 9109759
-7996.7266 -8731.5283 1084.3232 9109759
-7636.7266 -8731.5283 724.32324 9109759
-7636.7266 -8731.5283 844.32324 9109759
-7636.7266 -8611.5283 724.32324 9109759
-7636.7266 -8611.5283 844.32324 9109759
-7636.7266 -8731.5283 964.32324 9109759
-7636.7266 -8731.5283 1084.3232 9109759
-7636.7266 -8611.5283 964.32324 9109759
-7636.7266 -8611.5283 1084.3232 9109759
-8356.7266 -8611.5283 1204.3232 9109759
-8116.7266 -8851.5283 1204.3232 9109759
-8236.7266 -8731.5283 1204.3232 9109759
-8236.7266 -8611.5283 1204.3232 9109759
-8236.7266 -8611.5283 1324.3232 9109759
-8116.7266 -8731.5283 1204.3232 9109759
-8116.7266 -8731.5283 1324.3232 9109759
-8116.7266 -8611.5283 1204.3232 9109759
-8116.7266 -8611.5283 1324.3232 9109759
-8236.7266 -8611.5283 1444.3232 9109759
-8236.7266 -8611.5283 1564.3232 9109759
-8116.7266 -8731.5283 1444.3232 9109759
-8116.7266 -8731.5283 1564.3232 9109759
-8116.7266 -8611.5283 1444.3232 9109759
-8116.7266 -8611.5283 1564.3232 9109759
-8476.7266 -8371.5283 1324.3232 9109759
-8356.7266 -8491.5283 1204.3232 9109759
-8356.7266 -8491.5283 1324.3232 9109759
-8476.7266 -8371.5283 1444.3232 9109759
-8356.7266 -8491.5283 1444.3232 9109759
-8356.7266 -8491.5283 1564.3232 9109759
-8476.7266 -8251.5283 1324.3232 9109759
-8476.7266 -8251.5283 1444.3232 9109759
-8236.7266 -8491.5283 1204.3232 9109759
-8236.7266 -8491.5283 1324.3232 9109759
-8236.7266 -8491.5283 1444.3232 9109759
-8236.7266 -8491.5283 1564.3232 9109759
-7996.7266 -8971.5283 1204.3232 9109759
-7996.7266 -8971.5283 1324.3232 9109759
-7996.7266 -8851.5283 1204.3232 9109759
-7996.7266 -8851.5283 1324.3232 9109759
-7876.7266 -8971.5283 1204.3232 9109759
-7876.7266 -8971.5283 1324.3232 9109759
-7876.7266 -8851.5283 1324.3232 9109759
-7996.7266 -8971.5283 1444.3232 9109759
-7996.7266 -8971.5283 1564.3232 9109759
-7996.7266 -8851.5283 1444.3232 9109759
-7996.7266 -8851.5283 1564.3232 9109759
-7876.7266 -8971.5283 1444.3232 9109759
-7876.7266 -8971.5283 1564.3232 9109759
-7876.7266 -8851.5283 1444.3232 9109759
-7996.7266 -8731.5283 1204.3232 9109759
-7996.7266 -8731.5283 1324.3232 9109759
-7996.7266 -8731.5283 1444.3232 9109759
-7996.7266 -8731.5283 1564.3232 9109759
-7636.7266 -8731.5283 1204.3232 9109759
-7636.7266 -8731.5283 1324.3232 9109759
-7636.7266 -8611.5283 1204.3232 9109759
-7636.7266 -8611.5283 1324.3232 9109759
-7636.7266 -8731.5283 1444.3232 9109759
-7636.7266 -8131.5283 1684.3232 16711680
-7636.7266 -8131.5283 1804.3232 16711680
-7636.7266 -8131.5283 1924.3232 16711680
-7636.7266 -8131.5283 2044.3232 16711680
-7636.7266 -7651.5283 244.32324 16711680
-7636.7266 -7651.5283 364.32324 16711680
-7636.7266 -7651.5283 484.32324 16711680
-7636.7266 -7651.5283 604.32324 16711680
-7636.7266 -7651.5283 964.32324 16711680
-7636.7266 -7651.5283 1084.3232 16711680
-7996.7266 -7171.5283 244.32324 16711680
-7996.7266 -7171.5283 364.32324 16711680
-7996.7266 -7171.5283 484.32324 16711680
-7996.7266 -7171.5283 604.32324 16711680
-7636.7266 -7531.5283 244.32324 16711680
-7636.7266 -7531.5283 364.32324 16711680
-7636.7266 -7531.5283 484.32324 16711680
-7636.7266 -7531.5283 604.32324 16711680
-7996.7266 -7171.5283 724.32324 16711680
-7996.7266 -7171.5283 844.32324 16711680
-7996.7266 -7171.5283 964.32324 16711680
-7996.7266 -7171.5283 1084.3232 16711680
-7636.7266 -7531.5283 724.32324 16711680
-7636.7266 -7531.5283 844.32324 16711680
-7636.7266 -7531.5283 964.32324 16711680
-7636.7266 -7531.5283 1084.3232 16711680
-8236.7266 -7411.5283 1684.3232 16711680
-8236.7266 -7411.5283 1804.3232 16711680
-8116.7266 -7531.5283 1684.3232 16711680
-8116.7266 -7531.5283 1804.3232 16711680
-8116.7266 -7411.5283 1684.3232 16711680
-8116.7266 -7411.5283 1804.3232 16711680
-8236.7266 -7411.5283 1924.3232 16711680
-8236.7266 -7411.5283 2044.3232 16711680
-8116.7266 -7531.5283 1924.3232 16711680
-8116.7266 -7531.5283 2044.3232 16711680
-8116.7266 -7411.5283 1924.3232 16711680
-8116.7266 -7411.5283 2044.3232 16711680
-7636.7266 -7651.5283 1204.3232 16711680
-7636.7266 -7651.5283 1324.3232 16711680
-7636.7266 -7651.5283 1444.3232 16711680
-7636.7266 -7651.5283 1564.3232 16711680
-7996.7266 -7651.5283 1684.3232 16711680
-7996.7266 -7651.5283 1804.3232 16711680
-7876.7266 -7771.5283 1684.3232 16711680
-7876.7266 -7771.5283 1804.3232 16711680
-7876.7266 -7651.5283 1684.3232 16711680
-7876.7266 -7651.5283 1804.3232 16711680
-7996.7266 -7651.5283 1924.3232 16711680
-7996.7266 -7651.5283 2044.3232 16711680
-7876.7266 -7771.5283 1924.3232 16711680
-7876.7266 -7771.5283 2044.3232 16711680
-7876.7266 -7651.5283 1924.3232 16711680
-7876.7266 -7651.5283 2044.3232 16711680
-7636.7266 -8011.5283 1684.3232 16711680
-7636.7266 -8011.5283 1804.3232 16711680
-7636.7266 -8011.5283 1924.3232 16711680
-7636.7266 -8011.5283 2044.3232 16711680
-7636.7266 -7651.5283 1684.3232 16711680
-7636.7266 -7651.5283 1804.3232 16711680
-7636.7266 -7651.5283 1924.3232 16711680
-7636.7266 -7651.5283 2044.3232 16711680
-7996.7266 -7171.5283 1204.3232 16711680
-7996.7266 -7171.5283 1324.3232 16711680
-7876.7266 -7291.5283 1324.3232 16711680
-7876.7266 -7171.5283 1324.3232 16711680
-7996.7266 -7171.5283 1444.3232 16711680
-7996.7266 -7171.5283 1564.3232 16711680
-7876.7266 -7291.5283 1444.3232 16711680
-7876.7266 -7291.5283 1564.3232 16711680
-7876.7266 -7171.5283 1444.3232 16711680
-7876.7266 -7171.5283 1564.3232 16711680
-7756.7266 -7411.5283 1324.3232 16711680
