# .PCD v0.7 - Point Cloud Data file format
VERSION 0.7
FIELDS x y z
SIZE 4 4 4
TYPE F F F
COUNT 1 1 1
WIDTH 636
HEIGHT 1
VIEWPOINT 0 0 0 1 0 0 0
POINTS 636
DATA ascii
0.27709517 -0.81031549 1.0095584
0.27709484 -0.80927777 1.0090151
0.27709049 -0.80067301 0.995763
0.27709213 -0.80360609 1.0009176
0.277096 -0.81100398 1.0133008
0.27709243 -0.80384076 1.0023191
0.27706248 -0.74403381 0.91404355
0.27706912 -0.75765204 0.93294716
0.27707398 -0.76637918 0.94833153
0.27705291 -0.7244457 0.88741922
0.27705047 -0.72099465 0.8792389
0.27708331 -0.78616434 0.97444433
0.27708405 -0.78733337 0.97707909
0.27708653 -0.79188609 0.98481959
0.27705204 -0.72139001 0.88682479
0.27706555 -0.74801183 0.92589706
0.27708432 -0.78651059 0.97958583
0.27703944 -0.69901645 0.84851223
0.27704272 -0.70405972 0.85923374
0.27702895 -0.68032521 0.81803393
0.27702385 -0.67005306 0.8041777
0.27702707 -0.67497778 0.81463277
0.27709678 -0.81174284 1.0165476
0.27709514 -0.80880475 1.0113424
0.27709502 -0.8078081 1.0118526
0.27709588 -0.80934978 1.0148759
0.27709445 -0.8059265 1.0113244
0.27709162 -0.80041212 1.0025976
0.27709666 -0.81034362 1.0178334
0.27709156 -0.79910678 1.003871
0.27708447 -0.7839154 0.98371542
0.27705333 -0.72229064 0.89292073
0.27703837 -0.69380629 0.84984648
0.27707011 -0.75635928 0.94013596
0.27703393 -0.68288565 0.84042984
0.27705994 -0.73425686 0.91341078
0.27704301 -0.69957274 0.86730617
0.27701712 -0.65143406 0.79354769
0.2770209 -0.65500438 0.8083697
0.27700245 -0.62062168 0.75759053
0.27708191 -0.78015059 0.97458231
0.27707198 -0.75816208 0.94812393
0.27705321 -0.71889788 0.89653176
0.27703023 -0.67129385 0.83554208
0.27709085 -0.79934353 0.99954164
0.27708322 -0.78063524 0.98089945
0.27707058 -0.75372642 0.94588399
0.27698955 -0.60991311 0.70828974
0.27697247 -0.58105868 0.66265458
0.27698618 -0.60376334 0.70022017
0.2770066 -0.63966876 0.75580782
0.27694923 -0.54351366 0.60083938
0.27695951 -0.55821025 0.63045669
0.27699882 -0.62386078 0.73651749
0.27691478 -0.49056262 0.51116365
0.27692249 -0.49860579 0.53457499
0.27686146 -0.41963899 0.37522602
0.27682665 -0.37996215 0.29107231
0.27684861 -0.40209442 0.3467626
0.27688718 -0.4525404 0.43908912
0.27687627 -0.43663988 0.41352263
0.27678609 -0.33862275 0.19582961
0.27681321 -0.36360309 0.26144314
0.27683866 -0.38123205 0.3329899
0.27686977 -0.42458171 0.40175515
0.27678403 -0.3338114 0.19441724
0.27676168 -0.31678811 0.13816364
0.27675715 -0.31110585 0.13299631
0.2767942 -0.33962134 0.22158305
0.27689788 -0.46388841 0.47005212
0.27695563 -0.54589516 0.62617981
0.27701521 -0.65332836 0.78100389
0.27700847 -0.63968259 0.76442009
0.27698734 -0.60075128 0.70916724
0.27692586 -0.49765041 0.54849195
0.27689949 -0.4613139 0.47826272
0.27697149 -0.56816578 0.67223316
0.27693123 -0.50090802 0.56672287
0.2769075 -0.45978859 0.51030827
0.2768988 -0.45392796 0.48218885
0.27694753 -0.51848525 0.61763853
0.27692217 -0.47833154 0.55119139
0.27700698 -0.6342805 0.7634505
0.27699849 -0.61631024 0.74374807
0.27697572 -0.56851494 0.69032747
0.27688968 -0.42255294 0.47597337
0.27688441 -0.42503053 0.45416847
0.27685681 -0.37961981 0.39493635
0.27691886 -0.46381381 0.55087072
0.2768831 -0.39549163 0.47223315
0.27685153 -0.35323405 0.39631915
0.27694649 -0.51000375 0.62037843
0.2768372 -0.36655924 0.33997396
0.27680087 -0.32862011 0.25526562
0.27680135 -0.33899409 0.24642742
0.27687433 -0.42352286 0.4193922
0.27686444 -0.40100423 0.4031823
0.27676496 -0.31130427 0.15911429
0.27677459 -0.31001776 0.19059946
0.2768099 -0.32464716 0.28475589
0.27681419 -0.30935031 0.3089793
0.27677733 -0.28631866 0.21706174
0.27678061 -0.27137226 0.2353247
0.27674031 -0.27850947 0.12151255
0.27676404 -0.29038623 0.1774094
0.27672395 -0.28062001 0.069759831
0.27668852 -0.2439158 0.015112767
0.27672184 -0.24848253 0.096705429
0.27667153 -0.20818087 0.0042552929
0.27699429 -0.60141307 0.74000567
0.2769773 -0.56314832 0.70146775
0.27670297 -0.27103275 0.0089457398
0.2766948 -0.26569688 -0.013091801
0.27667972 -0.25562367 -0.040732324
0.27668914 -0.25973478 -0.012594747
0.27665597 -0.23941781 -0.079350986
0.27673569 -0.29543352 0.080894351
0.27671644 -0.27930084 0.043038428
0.27665967 -0.24294099 -0.080966771
0.27663767 -0.22999248 -0.12221371
0.27661845 -0.21957086 -0.15997696
0.27662537 -0.22330208 -0.14814188
0.27661818 -0.21913664 -0.15467861
0.27660799 -0.21394677 -0.17222992
0.27662927 -0.2244541 -0.13065605
0.27668256 -0.25016668 -0.011771276
0.27664077 -0.22495323 -0.089752033
0.27665257 -0.2252795 -0.057198681
0.27662358 -0.21931244 -0.13093998
0.27660415 -0.21075098 -0.16677669
0.27663052 -0.19919853 -0.079469092
0.27660763 -0.20000686 -0.13109463
0.27660522 -0.20678343 -0.15140252
0.27661067 -0.20724523 -0.13724221
0.27656931 -0.19114552 -0.20342502
0.27657685 -0.1898651 -0.18302962
0.2766006 -0.2097711 -0.17810825
0.27658755 -0.20325507 -0.19495231
0.27657661 -0.19709487 -0.20313853
0.276555 -0.18707627 -0.22859623
0.27653995 -0.17882197 -0.2399832
0.27651408 -0.16827747 -0.26881513
0.27652392 -0.16764998 -0.24870691
0.27649197 -0.15739356 -0.28682098
0.27623814 4.2646065 0.64343715
0.27623662 4.3235383 0.65217847
0.27627629 4.0045242 0.6089313
0.2761949 4.3385367 0.64907753
0.27621323 4.3502555 0.65320551
0.2762531 4.0664978 0.61533511
0.27623069 4.3303189 0.65243739
0.27629825 3.8666916 0.59084874
0.27629298 3.8784037 0.59194261
0.27632609 3.6305721 0.55857891
-3.6222138 -2.5738253e-05 -6.9296293e-05
-3.622364 -2.6551466e-05 -7.1666313e-05
-3.6223674 -2.6576201e-05 -7.1740076e-05
-3.6222658 -2.6021824e-05 -7.0123977e-05
-3.6219544 -2.4332985e-05 -6.5201799e-05
-3.6220119 -2.4630153e-05 -6.6064538e-05
-3.6220396 -2.4798188e-05 -6.6557863e-05
-3.6213315 -2.1052778e-05 -5.566618e-05
-3.6211407 -1.9972811e-05 -5.2508469e-05
-3.6208153 -1.8423543e-05 -4.8044454e-05
-3.6216712 -2.2800925e-05 -6.0738148e-05
-3.621407 -2.1381013e-05 -5.6603949e-05
-3.6216767 -2.2855369e-05 -6.0902436e-05
-3.6215422 -2.2161092e-05 -5.8887275e-05
-3.6210201 -1.9475317e-05 -5.1095449e-05
-3.6204712 -1.6684595e-05 -4.300677e-05
-3.62099 -1.9163874e-05 -5.015279e-05
-3.6203361 -1.6063825e-05 -4.1223433e-05
-3.6205628 -1.7220262e-05 -4.4575965e-05
-3.6208515 -1.8458866e-05 -4.8109236e-05
-3.6199043 -1.3988907e-05 -3.5238158e-05
-3.6198869 -1.393349e-05 -3.5085606e-05
0.27617216 4.3016467 0.64062083
0.27614045 4.395844 0.65083152
0.27618825 4.3844647 0.65517676
0.27646184 -0.00019309825 -5.5519881
0.27646524 -0.00019452712 -5.6058121
0.27646428 -0.00019364458 -5.59096
0.27646104 -0.00019119361 -5.5395656
0.27645579 -0.00019207419 -5.4554052
0.27645779 -0.0001901556 -5.487721
0.27631155 3.7274148 0.57140583
0.27609518 4.3870192 0.64384955
0.27605808 4.4470868 0.64817107
0.27600017 4.407589 0.63520503
0.27645564 -0.00018656823 -5.4541087
0.27601629 4.4008198 0.63618517
0.27595419 4.3570638 0.62217623
0.27643296 -0.0001894724 -5.096211
0.27643076 -0.00017248793 -5.063405
0.27641711 -0.00020800461 -4.8497043
0.27641886 -0.00015286574 -4.8841429
0.27643344 -0.0001671401 -5.1063805
0.2764031 -7.0351154e-05 -4.6549082
0.27639654 -0.0002821435 -4.5291791
0.27639458 -0.00012518995 -4.5205083
0.27637827 -0.00056883547 -4.2226439
0.2763778 -0.00021743882 -4.2629032
0.27635548 -0.0012570501 -3.8081579
0.276384 0.00012008008 -4.3972244
0.27635652 0.00091559166 -4.1067691
0.27602094 4.4668498 0.64646024
0.27596965 4.399622 0.6302948
0.27596265 4.403533 0.63000715
0.27591908 4.3164935 0.61203706
-3.6225324 -2.7476926e-05 -7.4367308e-05
-3.6225095 -2.7350809e-05 -7.3999719e-05
-3.6224952 -2.7271131e-05 -7.3766387e-05
-3.6225305 -2.747607e-05 -7.436717e-05
-3.622452 -2.7034392e-05 -7.3075593e-05
-3.6224771 -2.7184642e-05 -7.3516319e-05
-3.6224222 -2.6868409e-05 -7.2590694e-05
-3.6225364 -2.7517202e-05 -7.4489399e-05
-3.6225963 -2.7861006e-05 -7.5496821e-05
-3.6224031 -2.6777463e-05 -7.232849e-05
-3.6224699 -2.7152857e-05 -7.3426294e-05
-3.6227088 -2.8508251e-05 -7.7392113e-05
-3.6222854 -2.6116195e-05 -7.039617e-05
-3.6222627 -2.6011294e-05 -7.0094735e-05
0.2770946 -0.8054201 1.0126908
0.27709308 -0.80181283 1.0086737
0.27709073 -0.79684919 1.0018544
0.27708739 -0.78933984 0.99270737
0.27705258 -0.71540642 0.89677644
0.27703559 -0.67880785 0.85257941
0.27701953 -0.6461761 0.81048888
0.27698869 -0.58280116 0.7325837
0.27705747 -0.72496009 0.91082227
0.27702463 -0.65497714 0.82491606
0.2770423 -0.69210047 0.87099898
0.27702591 -0.65677434 0.82869482
0.27700436 -0.61156631 0.77479923
0.27706197 -0.73423719 0.92341751
0.27707875 -0.77046776 0.96891576
0.27696618 -0.53241146 0.68117893
0.27694923 -0.50852615 0.63205439
0.27691588 -0.44733065 0.55164438
0.27691597 -0.43307945 0.56063426
0.27695474 -0.51287615 0.6504671
0.27684802 -0.32892355 0.39862001
0.27686295 -0.341856 0.43746057
0.2768119 -0.2812632 0.3189353
0.27682564 -0.27190852 0.36133128
0.27688882 -0.3821407 0.49819869
0.27692384 -0.44447565 0.58188379
0.27688977 -0.37508574 0.5054059
0.2768155 -0.23367907 0.35034412
0.27685779 -0.31512961 0.4354136
0.27678415 -0.19011007 0.28518695
0.27682659 -0.23807457 0.3790386
0.27677712 -0.15116341 0.28175923
0.27678135 -0.13379692 0.29926091
0.2767815 -0.25089341 0.249878
0.27674371 -0.23090222 0.16222771
0.27674943 -0.16968811 0.20634869
0.27671203 -0.16305909 0.1187124
0.27670234 -0.21153566 0.072906598
0.27664888 -0.16135585 -0.019586748
0.27664804 -0.10549386 0.00055409689
0.27668333 -0.091200933 0.08159776
0.27665883 0.03235447 0.069579601
0.27673486 -0.085390098 0.20275451
0.27657202 -0.067857213 -0.13650912
0.27661914 -0.16758621 -0.082009405
0.27658394 -0.12509979 -0.13076679
0.27661553 -0.027785024 -0.041585535
-3.6227655 -2.8835686e-05 -7.8351375e-05
-3.6219635 -2.4393588e-05 -6.5380744e-05
0.27635625 3.3565061 0.52082628
0.2763654 3.2812667 0.51057929
0.27688739 -0.36425009 0.50277174
0.2768077 -0.18752368 0.34724018
0.27684397 -0.26896203 0.41518423
0.2767731 -0.10430061 0.28846505
0.27669516 0.048163552 0.15593398
0.27662915 0.29615897 0.091253094
0.2767238 0.015222283 0.2122055
0.27654213 -0.0047532995 -0.18317969
0.27653122 -0.085603319 -0.21043189
0.27649823 -0.048155025 -0.26455402
0.27658969 0.073369645 -0.066777565
0.27652055 0.040490508 -0.2240275
0.27644354 -0.0075639752 -0.38020501
0.27655333 0.10666602 -0.13874984
0.27640936 2.8097634 0.44456166
0.27647525 0.035573136 -0.33084828
-3.6218233 -2.3641527e-05 -6.3190906e-05
-3.6216469 -2.2718978e-05 -6.0510276e-05
-3.6211925 -2.0374122e-05 -5.3705819e-05
-3.6187789 -8.7209683e-06 -2.0077989e-05
0.27620199 4.43329 0.66430974
0.2763758 0.0035336758 -0.57514846
0.27624792 -0.025676142 -0.66387498
0.27623564 -0.010312531 -0.94386071
0.27586821 4.2472591 0.59548694
0.27582777 4.1556144 0.57724607
0.27588412 4.2587938 0.59927154
0.27505875 0.1485406 -0.41564193
0.2757521 3.9676328 0.54108232
0.27582049 4.1101813 0.57032371
0.27509844 0.13637981 -0.43517563
0.2751368 0.12609141 -0.45279306
0.27509284 0.13409323 -0.4303633
0.27511951 0.12032373 -0.43711689
0.27519763 0.11110038 -0.47978753
0.27501133 0.15450794 -0.39185771
-3.6165323 1.6844173e-06 9.840056e-06
-3.6134531 1.5591906e-05 4.9740756e-05
-3.6096854 3.1952779e-05 9.6520627e-05
0.27263328 0.015963953 0.045420878
0.27565178 3.6879585 0.48963359
0.27486768 0.18403213 -0.32263479
0.2750172 0.14632404 -0.39254439
0.2749961 0.13172701 -0.37673172
0.27525213 0.094442479 -0.49224874
0.27515373 0.10123745 -0.44149998
0.27443692 0.34613192 -0.12758254
0.27376175 0.13301139 -0.039820388
0.27482948 0.1460824 -0.3007696
0.27418798 0.15335421 -0.085220829
0.27453771 0.14157222 -0.17493728
0.2735351 -0.0051442301 0.052156955
0.27395618 0.062532231 -0.021672387
0.27494311 0.1191278 -0.34783581
0.27503654 0.10664517 -0.38781449
0.27474993 0.099770539 -0.25283837
0.27487549 0.11062968 -0.31360698
0.27497512 0.099661089 -0.35651091
0.27473515 -0.013570482 -0.16630648
0.27468517 -0.036540389 -0.11776658
0.27478054 0.0043064961 -0.20588492
0.27467856 -0.01462482 -0.13930359
0.27465123 -0.043427218 -0.094664283
0.2748051 0.0024443725 -0.21638228
0.27477396 -0.0087271426 -0.19001052
0.27461657 -0.062249906 -0.056957088
0.27442545 -0.41999659 0.52545744
0.27440593 -0.4032872 0.50372714
0.27443117 -0.42486084 0.53177655
0.27443048 -0.42271024 0.52863574
0.27437744 -0.38144597 0.47577891
0.27438483 -0.38540709 0.48050275
0.27441198 -0.40538183 0.50585067
0.27431798 -0.33953792 0.42269331
0.27435485 -0.36394775 0.45330042
0.27411309 -0.23113678 0.29086775
0.27421457 -0.27619389 0.3438611
0.27401668 -0.19404186 0.24822031
0.27406737 -0.20397326 0.25729859
0.2741926 -0.25363266 0.3140659
0.27427226 -0.31039968 0.38626927
0.27427667 -0.30963233 0.38455638
0.27432254 -0.34008896 0.42285654
0.27438903 -0.38583738 0.48049283
0.27436751 -0.36924869 0.459232
0.27424771 -0.28756753 0.35624555
0.2743341 -0.34243324 0.42463899
0.27429178 -0.31138068 0.3850663
0.27425656 -0.28192666 0.34692299
0.27444723 -0.43702367 0.54717958
0.27445605 -0.44318351 0.55485541
0.27443528 -0.42380983 0.52945167
0.27445385 -0.43941283 0.54958546
0.27446705 -0.45122701 0.56494784
0.27444801 -0.43125612 0.53840762
0.27442831 -0.4150773 0.5176
0.2744619 -0.44430569 0.55549878
0.27447858 -0.4605132 0.57679296
0.27447489 -0.45615166 0.57092011
0.27446038 -0.4401843 0.54960829
0.27441472 -0.39686066 0.49273372
0.27445048 -0.42682233 0.53138649
0.2744756 -0.45241305 0.56520915
0.27438554 -0.37658182 0.46730271
0.27435029 -0.34404382 0.42460304
0.2743974 -0.37623921 0.46493292
0.27430192 -0.29583731 0.3609387
0.27423581 -0.25192052 0.30634147
0.27437866 -0.35428873 0.43541202
0.27440903 -0.37606934 0.46280622
0.27435121 -0.32734531 0.3999261
0.27437934 -0.34021187 0.41452432
0.2743026 -0.26358706 0.31400749
0.27434126 -0.30186394 0.36402327
0.274432 -0.40330204 0.49947011
0.27445436 -0.42285126 0.5247969
0.27443233 -0.38952997 0.47894681
0.27440897 -0.36229733 0.44241521
0.27439746 -0.338063 0.40842327
0.2743755 -0.30414137 0.36192122
0.27442679 -0.36739305 0.44698611
0.27440369 -0.31941903 0.37974864
0.27386698 -0.14540957 0.19405061
0.27348101 -0.070584267 0.11966027
0.27378595 -0.10766964 0.15115672
0.27398989 -0.15427169 0.19676863
0.27364954 -0.062824719 0.10608111
0.27394751 -0.11293539 0.14705068
0.27384841 -0.065003239 0.097471572
0.27413023 -0.2088639 0.25771689
0.27410126 -0.14217372 0.16972995
0.27419186 -0.19637319 0.23315078
0.2740415 -0.097792514 0.11999249
0.27410063 -0.049559314 0.058975663
0.27418551 -0.12355799 0.13470425
0.27426144 -0.079249792 0.066640511
0.27422252 -0.16686219 0.18775998
0.27421385 0.075780593 -0.064716101
0.27418292 0.015209937 -0.015351185
0.27444541 0.064608589 -0.11555737
0.27436337 0.01916909 -0.058629714
0.27457708 0.080336601 -0.16899858
0.2746993 0.068567455 -0.21551684
0.2748988 0.086857326 -0.31619427
0.27483609 0.063631229 -0.27614725
0.27439794 -0.032062732 -0.017677872
0.27457404 0.040980734 -0.14430231
0.27446437 0.011082811 -0.080541216
0.27476892 0.049761325 -0.23612176
0.27468514 0.020069828 -0.17555586
0.27486759 0.045838613 -0.28126079
0.27453694 -0.0070403041 -0.088871025
0.27458227 -0.030053113 -0.082220979
0.27482006 0.024808548 -0.24310985
0.27428263 -0.21556857 0.24772465
0.27429265 -0.18165508 0.19776848
0.27434778 -0.2489339 0.28554085
0.27434111 -0.27685836 0.32747337
0.27432805 -0.21499455 0.23953062
0.27429733 -0.14500548 0.1456763
0.27433816 -0.17137338 0.1751285
0.27438343 -0.094938271 0.061388973
0.27437648 -0.15146406 0.13944872
0.2743732 -0.21430913 0.23038664
0.27439383 -0.28817362 0.33524409
0.27438885 -0.25065121 0.28073311
0.27437875 -0.18399863 0.18540138
0.27440542 -0.17652847 0.16884758
0.27439892 -0.20130509 0.20629889
0.27441192 -0.2269813 0.2412948
0.27442873 -0.14914858 0.12372832
0.27442643 -0.19813232 0.19558614
0.27446067 -0.15949607 0.1306126
0.27448538 -0.052655883 -0.020752015
0.27446133 -0.11331902 0.064758472
0.27453354 -0.082798809 0.0010290955
0.27460027 -0.050199267 -0.065260671
0.27488679 0.022960486 -0.27557671
0.27449861 -0.12111614 0.064871565
0.27454826 -0.095588647 0.013112704
0.27459145 -0.067400478 -0.040350046
0.27450094 -0.48093009 0.60333329
0.27448496 -0.46461552 0.58178639
0.27449802 -0.47552699 0.59576261
0.27450493 -0.48390347 0.60705525
0.27448961 -0.4638254 0.57978076
0.2744779 -0.44799295 0.55820775
0.27450696 -0.4847886 0.60800338
0.27450135 -0.47592479 0.59576041
0.27449161 -0.46134642 0.57572234
0.27451199 -0.49102318 0.61642599
0.27451926 -0.49879053 0.62672251
0.27451319 -0.49053323 0.61547142
0.27447787 -0.43964276 0.54575521
0.27449322 -0.45972639 0.57301432
0.274501 -0.47050387 0.58772475
0.2745111 -0.48520136 0.60787863
0.27445602 -0.41312918 0.51002383
0.27444726 -0.39498156 0.48451284
0.27446187 -0.40942898 0.50349289
0.27448922 -0.44996309 0.5591495
0.27447817 -0.42713398 0.52702141
0.27443126 -0.34732348 0.41637325
0.27444649 -0.38208115 0.46543813
0.27441746 -0.31370825 0.36885071
0.27444762 -0.35890123 0.43069565
0.27443618 -0.3279289 0.3865881
0.27446193 -0.39594781 0.48337424
0.27448311 -0.42964685 0.52988517
0.27449828 -0.46121147 0.57432568
0.27447593 -0.41611087 0.51096356
0.27447411 -0.40892267 0.50056297
0.27446932 -0.40119258 0.48987749
0.2744599 -0.38033375 0.46044543
0.27446458 -0.38652676 0.4688409
0.27445319 -0.35896361 0.42976785
0.27450925 -0.48068824 0.60146087
0.27451822 -0.49559045 0.62212157
0.27451813 -0.49432266 0.6202482
0.27452302 -0.50269431 0.63187903
0.27452502 -0.50566465 0.63596088
0.27452689 -0.50777817 0.63878053
0.27452281 -0.50170946 0.63044745
0.27453086 -0.51326138 0.64625025
0.27449247 -0.44721764 0.55444837
0.27445313 -0.21368068 0.21251988
0.27444419 -0.21772105 0.22056536
0.27444652 -0.23914224 0.25195888
0.27446264 -0.185297 0.16811103
0.27441505 -0.2796801 0.31872767
0.2744354 -0.29642442 0.33973101
0.27442983 -0.24645582 0.26641938
0.27443817 -0.26805887 0.29686347
0.2744433 -0.26952666 0.29798242
0.27444234 -0.29427755 0.33515066
0.2744433 -0.32039511 0.37400323
0.27449527 -0.13999256 0.092884287
0.27657381 -0.17297438 -0.16969956
0.27655602 -0.14132556 -0.18185478
0.27657354 -0.18266307 -0.18072057
0.27653921 -0.16823566 -0.22540002
0.27652028 -0.15077013 -0.24144709
0.27649575 -0.15003885 -0.27396762
0.27650863 -0.13258009 -0.25072032
0.2764436 -0.1271359 -0.32567623
0.27647573 -0.12864155 -0.29124427
0.27649218 -0.11139221 -0.26921183
0.27645335 -0.13827325 -0.31858861
0.27638417 -0.10006756 -0.38143903
0.27639207 -0.11388658 -0.37152517
0.27644032 -0.10518999 -0.32908005
0.27647173 -0.15063854 -0.30872932
0.27644387 -0.13859159 -0.33134001
0.27643126 -0.13558125 -0.34437943
0.27639973 -0.1213904 -0.36633751
0.27636772 -0.1129497 -0.39193472
0.27637947 -0.11800909 -0.38437444
0.27631989 -0.089954756 -0.42765084
0.27633998 -0.10206238 -0.40998966
0.27646384 -0.077424064 -0.30743462
0.27642438 -0.044091996 -0.37919807
0.27637565 -0.080366187 -0.40102795
0.2762951 -0.050288875 -0.50453258
0.27634078 -0.034159139 -0.50481796
0.27630156 -0.074275278 -0.45421565
0.27622283 -0.062854722 -0.49520382
0.27623844 -0.074174531 -0.47188523
0.27619863 -0.033491936 -0.60129774
0.27614731 -0.018520327 -0.7036469
0.27620935 -0.048862237 -0.53285998
0.27617392 -0.056853462 -0.51049578
0.27611536 -0.040807638 -0.5458371
0.27605867 -0.020816647 -0.61049575
0.27632529 -0.10117939 -0.41889304
0.27623346 -0.077291138 -0.46948469
0.27613732 -0.055669907 -0.51081669
0.27612266 -0.050370216 -0.52008063
0.27603173 -0.03064928 -0.55497956
0.27603388 -0.03536512 -0.54145527
0.27596328 -0.021534164 -0.56057137
0.27599481 -0.020649387 -0.57612222
0.27598059 -0.00025234773 -0.69324148
0.27558276 0.04604366 -0.58726734
0.27587718 0.0029200057 -0.61240405
0.27592519 -0.0073237498 -0.59471971
0.27579805 0.0083594862 -0.58440942
0.27589199 -0.0064743948 -0.58061808
0.27536339 0.081568673 -0.56889486
0.27568537 0.02664122 -0.5821538
0.27540287 0.067283347 -0.53116077
0.27553117 0.0464512 -0.55443645
0.27581954 0.0025596947 -0.57756776
0.27562875 0.029136231 -0.56270325
0.27572951 0.014207283 -0.57087755
0.27594954 -0.016875641 -0.57061535
0.2758761 -0.0083300825 -0.56831497
0.27586889 -0.0055513955 -0.57412744
0.27591762 -0.015513627 -0.56223738
0.27579159 0.0040682526 -0.5701642
0.27579981 0.001418181 -0.56610733
0.2756491 0.019844497 -0.55515623
0.27559438 0.028866583 -0.55245703
0.27528787 0.078701928 -0.48846313
0.27539891 0.061439805 -0.51900518
0.27549303 0.045943975 -0.53847319
0.27553529 0.037703209 -0.54475534
0.27545899 0.045054086 -0.52730733
0.27549994 0.038302179 -0.53568798
0.27520493 0.082043208 -0.45384413
0.27529016 0.06812688 -0.48165414
0.27509582 0.080642894 -0.40471828
0.27522111 0.063532516 -0.45234624
0.27533808 0.056359261 -0.49319175
0.27541885 0.042410523 -0.51707542
0.2752994 0.052418426 -0.48102903
0.27553776 0.032292515 -0.54152554
0.27549675 0.034469713 -0.53489327
0.27540362 0.04201442 -0.51708448
0.27540389 0.041674476 -0.51959878
0.27533674 0.046590716 -0.49772161
0.27534497 0.045105934 -0.50497752
0.2752918 0.047108516 -0.4933098
0.27528745 0.047396772 -0.48949608
0.27528384 0.048145119 -0.48478583
0.27501124 0.070259497 -0.36272287
0.27510864 0.063751392 -0.40552551
0.27493945 0.059731793 -0.32414338
0.27502257 0.05698549 -0.36371574
0.2751888 0.05601003 -0.43990794
0.275251 0.0503539 -0.46831247
0.27509928 0.05525361 -0.40050158
0.27514756 0.050137315 -0.4245981
0.27496576 0.045852881 -0.33093366
0.27504236 0.049576361 -0.37183318
0.2748884 0.035299096 -0.28498569
0.27502024 0.041281804 -0.35784873
0.27507439 0.046929799 -0.38823187
0.27508307 0.044599641 -0.39340988
0.27513137 0.04625934 -0.41973406
0.2752414 0.048395615 -0.47152063
0.27518052 0.047947045 -0.44502404
0.2750724 0.041238572 -0.38760287
0.27516419 0.046571758 -0.43937272
0.27539062 0.043583758 -0.5235132
0.27525151 0.047972701 -0.48104617
0.27526203 0.047998317 -0.48714
0.27524093 0.048287105 -0.48146114
0.27522719 0.048202448 -0.47576061
0.27522421 0.048257735 -0.47620469
0.27520624 0.047653865 -0.4616695
0.27511668 0.042783588 -0.41473299
0.27517399 0.046305504 -0.44722068
0.27520576 0.047650803 -0.46597889
0.27521047 0.04794177 -0.47032326
0.2752316 0.048703548 -0.48167902
0.27503785 0.036241323 -0.36717451
0.27516836 0.045895368 -0.44588143
0.27499345 0.033341851 -0.34032723
0.27495953 0.026458288 -0.3178944
0.27486399 0.011902397 -0.25516436
0.2752316 0.048703548 -0.48167902
0.27519664 0.047356252 -0.46269184
