# .PCD v0.7 - Point Cloud Data file format
VERSION 0.7
FIELDS x y z rgb
SIZE 4 4 4 4
TYPE F F F F
COUNT 1 1 1 1
WIDTH 1041
HEIGHT 1
VIEWPOINT 0 0 0 1 0 0 0
POINTS 1041
DATA ascii
2.714649 0.042710692 1.1449391 1.8625319e-38
2.6926634 0.0049730167 1.1356664 1.8993386e-38
1.894725 -0.022811845 0.79912531 1.8259056e-38
1.832081 -0.047498889 0.77270436 1.2451815e-38
-0.34363717 0.013681134 -0.14493351 1.743254e-38
1.6102529 -0.086469397 0.6791454 1.1718217e-38
1.6024916 -0.10830569 0.67587203 1.2000567e-38
-0.34363717 0.027996924 -0.14493351 1.743326e-38
2.8063016 -0.26760578 1.1835948 1.8533135e-38
2.7828131 -0.30400959 1.1736882 1.8809711e-38
2.8063016 -0.34554541 1.1835948 1.8442371e-38
2.7828131 -0.38129684 1.1736882 1.7984997e-38
2.8063016 -0.42348501 1.1835948 1.871716e-38
2.8301902 -0.46639144 1.1936702 1.908918e-38
2.8301902 -0.50569296 1.1936702 1.9545119e-38
2.8544888 -0.54967356 1.2039183 1.9362887e-38
2.8544888 -0.58931255 1.2039183 1.7983553e-38
2.8792083 -0.63439816 1.2143441 1.9914622e-38
2.8792083 -0.67438036 1.2143441 1.881151e-38
2.8544888 -0.70822942 1.2039183 1.9911745e-38
2.8792083 -0.75434482 1.2143441 5.6408975e-39
2.8792083 -0.79432708 1.2143441 2.1762126e-38
2.9299543 -0.84901398 1.235747 2.1574498e-38
2.9043596 -0.88192892 1.2249521 2.1205715e-38
2.9560039 -0.93865973 1.2467338 2.0561067e-38
3.0095184 -0.99744463 1.2693042 2.0561425e-38
2.9560039 -1.0207571 1.2467338 2.1204638e-38
2.9825211 -1.0713308 1.2579176 2.0009333e-38
2.9825211 -1.1127477 1.2579176 2.0379556e-38
2.9825211 -1.1541646 1.2579176 2.0285564e-38
2.9560039 -1.1849517 1.2467338 1.8905145e-38
2.9560039 -1.2260003 1.2467338 1.9364328e-38
2.9560039 -1.267049 1.2467338 1.7984274e-38
2.9825211 -1.3198321 1.2579176 1.7984629e-38
2.9299543 -1.3372569 1.235747 2.0007894e-38
2.9043596 -1.3659068 1.2249521 1.7340344e-38
2.9043596 -1.4062383 1.2249521 1.1712092e-38
-0.34363717 0.17115481 -0.14493351 1.2721199e-38
2.436173 -1.2472109 1.0274881 9.9643321e-39
2.4184523 -1.2717226 1.0200142 9.6891815e-39
-0.34363717 0.18547061 -0.14493351 0
-0.34363717 -0.19151185 -0.14016159 3.5020004e-39
1.2813452 0.69631094 0.52263081 4.8932067e-39
1.2863026 0.68114257 0.52465284 7.8316035e-39
1.3380704 0.68997425 0.54576772 2.1233806e-39
1.348928 0.67684108 0.55019629 5.0614158e-39
1.348928 0.65810913 0.55019629 1.0227944e-38
-0.34363717 -0.16288027 -0.14016159 8.7542716e-39
1.0472544 0.48184448 0.4271507 2.3509163e-38
1.0472544 0.46730176 0.4271507 3.8701243e-39
1.0472544 0.45275903 0.4271507 1.6681814e-39
1.229234 0.5143643 0.50137591 8.7542716e-39
1.229234 0.49729452 0.50137591 5.895484e-39
1.2618922 0.49298331 0.51469642 1.2720486e-38
-0.34363717 -0.12947676 -0.14016159 7.7487573e-39
-0.34363717 -0.12470483 -0.14016159 7.2877792e-39
-0.34363717 -0.1199329 -0.14016159 6.1839539e-39
-0.34363717 -0.11516097 -0.14016159 6.9132401e-39
-0.34363717 -0.11038904 -0.14016159 8.3862094e-39
-0.34363717 -0.10561711 -0.14016159 1.8489713e-39
-0.34363717 -0.10084518 -0.14016159 2.302737e-39
-0.34363717 -0.096073255 -0.14016159 7.1912591e-39
-0.34363717 -0.091301322 -0.14016159 1.9088097e-38
2.0338085 0.51212215 0.82954299 2.7615641e-39
2.084821 0.49601641 0.85034984 2.7600983e-39
2.1247919 0.47602022 0.86665303 6.6373637e-39
2.1949284 0.46125305 0.8952601 1.8991588e-38
2.2242968 0.43653691 0.90723878 2.0563955e-38
2.6710315 0.48712093 1.0894514 1.6055027e-38
2.6926634 0.45367426 1.0982747 9.680558e-39
2.6926634 0.41628247 1.0982747 7.7498475e-39
2.714649 0.38198432 1.107242 5.7211877e-39
2.6710315 0.33875543 1.0894514 4.9893834e-39
2.714649 0.30659017 1.107242 8.5767495e-39
2.714649 0.26889312 1.107242 7.7581516e-39
2.714649 0.23119605 1.107242 8.676515e-39
2.714649 0.19349897 1.107242 7.4754298e-39
2.7369962 0.15708448 1.116357 7.9331542e-39
2.714649 0.11810483 1.107242 6.8293262e-39
2.714649 0.080407761 1.107242 6.6243975e-39
2.714649 0.042710692 1.107242 1.7337471e-38
1.9276814 0.0035601896 0.78625631 1.8810442e-38
1.8628764 -0.022428399 0.75982386 1.0698308e-38
1.8121101 -0.046981122 0.73911744 9.6859558e-39
1.6024916 -0.063799575 0.65361899 1.0427844e-38
1.5871916 -0.085231028 0.64737844 1.2913169e-38
1.5796506 -0.10676196 0.64430267 1.4016635e-38
2.8301902 -0.23058222 1.1543685 2.0287363e-38
2.8063016 -0.26760578 1.1446251 1.8535652e-38
2.8063016 -0.3065756 1.1446251 1.8624609e-38
2.8063016 -0.34554541 1.1446251 1.8626764e-38
2.8063016 -0.38451523 1.1446251 1.7890277e-38
2.8544888 -0.43075669 1.1642795 1.9273211e-38
2.8301902 -0.46639144 1.1543685 1.8072511e-38
2.8544888 -0.51003462 1.1642795 1.8812236e-38
2.8544888 -0.54967356 1.1642795 2.0468151e-38
2.8792083 -0.5944159 1.1743619 1.9273217e-38
2.8792083 -0.63439816 1.1743619 1.8995547e-38
2.8792083 -0.67438036 1.1743619 1.8810076e-38
2.9043596 -0.72060293 1.1846205 2.0097944e-38
2.9043596 -0.76093441 1.1846205 2.0557245e-39
2.9043596 -0.8012659 1.1846205 2.1021325e-38
2.9299543 -0.84901398 1.19506 2.1575219e-38
2.9560039 -0.89761108 1.2056851 2.1574863e-38
2.9560039 -0.93865973 1.2056851 2.0286284e-38
2.9825211 -0.98849696 1.2165008 2.0469235e-38
2.9825211 -1.0299139 1.2165008 2.1022046e-38
3.0095184 -1.0810282 1.2275124 2.1113165e-38
3.0095184 -1.12282 1.2275124 2.0099013e-38
3.0095184 -1.1646118 1.2275124 2.0470311e-38
3.0095184 -1.2064036 1.2275124 2.0010053e-38
2.9825211 -1.2369983 1.2165008 1.7892799e-38
3.0095184 -1.2899871 1.2275124 1.9183175e-38
3.0095184 -1.3317789 1.2275124 1.890551e-38
2.9825211 -1.361249 1.2165008 1.9177065e-38
2.9043596 -1.3659068 1.1846205 1.3472102e-38
2.8544888 -1.3820918 1.1642795 1.0883057e-38
2.5288205 -1.2595257 1.0314469 1.0141172e-38
2.4184523 -1.2381386 0.98643023 8.8619488e-39
2.4009874 -1.2625388 0.97930676 1.0239487e-38
-0.34363717 0.18547061 -0.14016159 0
1.2618922 0.70326304 0.4971731 9.692092e-39
1.276426 0.69363767 0.50289923 9.7824744e-39
1.2912984 0.683788 0.50875884 8.3105939e-39
1.2813452 0.66072404 0.50483739 6.6485488e-39
1.2813452 0.64293057 0.50483739 4.5341632e-39
-0.34363717 -0.1676522 -0.13538966 3.0587235e-39
-0.34363717 -0.16288027 -0.13538966 6.919829e-39
-0.34363717 -0.15810834 -0.13538966 7.7420171e-39
1.0538937 0.47026429 0.41522375 3.6989235e-40
1.0538937 0.45562935 0.41522375 3.7004859e-39
1.229234 0.5143643 0.4843061 6.919829e-39
1.229234 0.49729452 0.4843061 7.7420171e-39
1.229234 0.48022473 0.4843061 1.723054e-38
1.2383912 0.46660519 0.48791391 1.6779638e-38
1.2383912 0.4494082 0.48791391 1.8077936e-38
1.2476858 0.43545517 0.4915759 1.6049614e-38
1.257121 0.42129108 0.49529326 9.9686789e-39
1.2666999 0.40691113 0.49906728 8.3959512e-39
-0.34363717 -0.10561711 -0.13538966 6.3701501e-39
-0.34363717 -0.10084518 -0.13538966 1.3559604e-38
-0.34363717 -0.096073255 -0.13538966 9.969395e-39
2.6710315 0.70966917 1.0523601 1.2537538e-38
-0.34363717 -0.086529389 -0.13538966 2.0745819e-38
-0.34363717 -0.081757464 -0.13538966 2.1388666e-38
2.6710315 0.59839505 1.0523601 7.4793857e-39
2.6710315 0.56130368 1.0523601 1.9456159e-38
-0.34363717 -0.067441672 -0.13538966 1.4385765e-38
2.714649 0.49507552 1.0695449 2.2223471e-38
2.714649 0.45737848 1.0695449 1.548922e-38
2.714649 0.4196814 1.0695449 1.392587e-38
2.7369962 0.38512886 1.0783496 1.3830432e-38
2.714649 0.34428725 1.0695449 1.35524e-38
2.7369962 0.30911407 1.0783496 1.2907042e-38
2.7369962 0.27110669 1.0783496 1.0147291e-38
2.7369962 0.23309928 1.0783496 7.8416872e-39
2.7597146 0.19671123 1.0873003 6.8264577e-39
2.7597146 0.15838836 1.0873003 5.9091803e-39
2.7828131 0.12107042 1.096401 6.0964625e-39
2.8063016 0.083122514 1.1056552 5.6408891e-39
1.9502968 0.030684825 0.76839775 6.6575676e-39
1.9055846 0.0035193793 0.75078154 9.3186222e-39
1.8524969 -0.022303432 0.72986549 7.4811766e-39
1.7925699 -0.04647452 0.70625484 1.060899e-38
1.5871916 -0.063190438 0.62533784 1.2819165e-38
1.5796506 -0.084826082 0.62236679 1.199265e-38
1.5871916 -0.10727162 0.62533784 2.5004588e-39
2.7828131 -0.2267223 1.096401 1.945437e-38
2.8063016 -0.26760578 1.1056552 1.8446336e-38
2.8063016 -0.3065756 1.1056552 1.8810442e-38
2.8301902 -0.34848684 1.115067 1.8627484e-38
2.8301902 -0.38778839 1.115067 1.8810799e-38
2.8301902 -0.4270899 1.115067 1.9635158e-38
2.8544888 -0.47039565 1.1246405 1.9362887e-38
2.8544888 -0.51003462 1.1246405 1.9731307e-38
2.8792083 -0.5544337 1.1343796 1.9731312e-38
2.8792083 -0.5944159 1.1343796 1.9087021e-38
2.9043596 -0.6399399 1.144289 1.9177777e-38
2.8792083 -0.67438036 1.1343796 1.8995179e-38
2.9299543 -0.72695321 1.154373 9.0427794e-39
2.9560039 -0.77446508 1.1646365 1.3651445e-38
2.9299543 -0.80832708 1.154373 2.1390828e-38
2.9825211 -0.86424631 1.1750839 2.1574499e-38
2.9560039 -0.89761108 1.1646365 2.2219147e-38
2.9825211 -0.94708008 1.1750839 2.1297911e-38
2.9825211 -0.98849696 1.1750839 2.1296833e-38
3.0095184 -1.0392364 1.1857206 2.0284481e-38
3.0095184 -1.0810282 1.1857206 2.0101893e-38
3.0370088 -1.1330763 1.1965514 1.9640915e-38
3.0370088 -1.1752499 1.1965514 1.8627839e-38
3.0370088 -1.2174234 1.1965514 1.9732033e-38
3.0095184 -1.2481953 1.1857206 1.8720763e-38
3.0095184 -1.2899871 1.1857206 1.9452923e-38
3.0095184 -1.3317789 1.1857206 1.7615137e-38
2.9299543 -1.3372569 1.154373 1.7797724e-38
2.9299543 -1.3779439 1.154373 9.5058875e-39
2.8544888 -1.3820918 1.1246405 1.0883409e-38
2.4724052 -1.231427 0.97410327 1.1526622e-38
2.4009874 -1.2291974 0.94596535 1.0517506e-38
2.3837729 -1.2534868 0.939183 1.327222e-38
-0.34363717 0.18547061 -0.13538966 0
1.1939207 0.66538197 0.45381358 2.2581448e-38
1.1939207 0.64880258 0.45381358 1.6871454e-38
1.21132 0.6414367 0.46042714 1.797636e-38
1.2247061 0.63151813 0.46551517 1.4846387e-38
-0.34363717 -0.17242412 -0.13061772 1.4704708e-39
-0.34363717 -0.1676522 -0.13061772 1.1074336e-39
-0.34363717 -0.16288027 -0.13061772 2.4842429e-39
1.0606177 0.48799291 0.4031446 1.08744e-38
1.057245 0.47175968 0.40186262 8.3086209e-40
-0.34363717 -0.14856449 -0.13061772 1.3612998e-38
1.2430211 0.52013344 0.47247681 1.4708057e-39
1.2383912 0.50099909 0.47071695 8.2850398e-39
1.2430211 0.4856109 0.47247681 1.5086668e-38
1.2430211 0.46834967 0.47247681 1.3701597e-38
1.257121 0.45620519 0.47783619 1.6551009e-38
1.2476858 0.43545517 0.47424987 2.126661e-38
1.257121 0.42129108 0.47783619 1.9427025e-38
1.2666999 0.40691113 0.4814772 2.183743e-38
1.2666999 0.38932106 0.4814772 1.5308118e-38
-0.34363717 -0.10084518 -0.13061772 1.8351258e-38
-0.34363717 -0.096073255 -0.13061772 1.8994468e-38
2.7369962 0.72719544 1.0403421 3.5092045e-39
-0.34363717 -0.086529389 -0.13061772 1.9365407e-38
-0.34363717 -0.081757464 -0.13061772 2.019517e-38
2.6710315 0.59839505 1.0152687 2.0099369e-38
-0.34363717 -0.072213605 -0.13061772 1.7979235e-38
-0.34363717 -0.067441672 -0.13061772 1.8440212e-38
2.714649 0.49507552 1.0318478 1.438325e-38
2.7369962 0.46114367 1.0403421 1.6506985e-38
2.7369962 0.42313626 1.0403421 1.6965443e-38
2.7597146 0.3883256 1.0489775 1.6965443e-38
2.7369962 0.34712148 1.0403421 1.6415152e-38
2.7369962 0.30911407 1.0403421 1.6411914e-38
2.7369962 0.27110669 1.0403421 1.5859096e-38
2.7828131 0.23700133 1.0577574 1.3925507e-38
2.7828131 0.19835769 1.0577574 1.3003556e-38
2.7828131 0.15971406 1.0577574 1.4105948e-38
2.7828131 0.12107042 1.0577574 1.0056176e-38
2.7828131 0.082426786 1.0577574 1.2170559e-38
1.9618046 0.030865883 0.74568903 7.3821482e-39
1.8839885 0.003479494 0.71611083 8.8612299e-39
1.8422323 -0.022179851 0.70023918 1.0422799e-38
1.5871916 -0.04114984 0.60329723 9.3222123e-39
1.5796506 -0.062890209 0.60043091 1.0796269e-38
1.572181 -0.084424965 0.59759164 8.0267988e-39
2.8792083 -0.19459361 1.0943974 1.3005012e-38
2.8544888 -0.23256189 1.0850015 1.6410847e-38
2.8301902 -0.26988375 1.0757655 1.7888128e-38
2.8544888 -0.31183982 1.0850015 1.8534577e-38
2.8301902 -0.34848684 1.0757655 1.9733112e-38
2.8544888 -0.39111772 1.0850015 2.0378481e-38
2.8301902 -0.4270899 1.0757655 2.0745104e-38
2.8544888 -0.47039565 1.0850015 1.9272132e-38
2.8792083 -0.51445144 1.0943974 2.120464e-38
2.8792083 -0.5544337 1.0943974 1.9456889e-38
2.8792083 -0.5944159 1.0943974 1.8994833e-38
2.9043596 -0.6399399 1.1039575 1.9178139e-38
2.9299543 -0.6862663 1.1136862 2.0190488e-38
2.9560039 -0.73341644 1.1235877 6.283767e-39
2.9560039 -0.77446508 1.1235877 2.0193014e-38
2.9560039 -0.81551379 1.1235877 2.0190131e-38
2.9825211 -0.86424631 1.133667 2.1942203e-38
3.0095184 -0.91386104 1.1439288 2.0837654e-38
3.0095184 -0.95565283 1.1439288 2.0377036e-38
3.0370088 -1.0065558 1.1543779 2.1205717e-38
3.0370088 -1.0487293 1.1543779 2.0745819e-38
3.0370088 -1.0909028 1.1543779 1.9730951e-38
3.0370088 -1.1330763 1.1543779 1.9272132e-38
3.065006 -1.1860842 1.1650198 2.0559271e-38
3.065006 -1.2286465 1.1650198 1.8352337e-38
3.0370088 -1.2595969 1.1543779 1.8723273e-38
3.0370088 -1.3017704 1.1543779 1.8812236e-38
3.0370088 -1.3439441 1.1543779 1.807647e-38
2.9560039 -1.3491462 1.1235877 1.8809009e-38
2.9043596 -1.3659068 1.1039575 9.414038e-39
2.5288205 -1.2244091 0.96121383 1.1342953e-38
2.436173 -1.2133808 0.92599815 9.7767038e-39
2.4009874 -1.2291974 0.91262394 1.1066366e-38
2.3500741 -1.2357665 0.89327163 1.2912429e-38
-0.34363717 0.18547061 -0.13061772 0
-0.34363717 -0.19151185 -0.12584579 2.0188329e-38
-0.34363717 -0.18673992 -0.12584579 1.8256534e-38
1.2202113 0.64614493 0.44686219 1.1421453e-38
1.2247061 0.63151813 0.44850826 1.9907052e-38
-0.34363717 -0.17242412 -0.12584579 3.5934758e-39
-0.34363717 -0.1676522 -0.12584579 2.3092152e-39
1.057245 0.50112259 0.38718116 2.1019477e-44
1.057245 0.48644114 0.38718116 1.8442783e-39
1.0538937 0.47026429 0.38595387 3.8686235e-39
1.0640119 0.46000373 0.38965932 1.5720102e-39
1.0743263 0.44954425 0.39343661 1.5669796e-39
1.1854072 0.4795641 0.43411633 3.3107666e-39
1.1811957 0.46145764 0.43257406 1.6676257e-38
1.1854072 0.44664171 0.43411633 1.5753955e-38
1.1896487 0.43171975 0.43566966 1.3899988e-38
1.1854072 0.4137193 0.43411633 1.3346088e-38
1.1854072 0.3972581 0.43411633 1.8513371e-38
1.1896487 0.38215944 0.43566966 6.1987797e-39
1.1854072 0.36433569 0.43411633 6.5672007e-39
1.1982236 0.35163563 0.4388099 1.2897229e-39
1.2069229 0.3374286 0.44199574 1.3747605e-38
1.2025574 0.31950879 0.44039708 1.8627484e-38
1.229234 0.30952668 0.45016646 2.1205003e-38
1.21132 0.28819484 0.44360608 1.9545116e-38
-0.34363717 -0.076985531 -0.12584579 1.8163625e-38
-0.34363717 -0.072213605 -0.12584579 1.8073225e-38
-0.34363717 -0.067441672 -0.12584579 1.8623883e-38
2.7369962 0.49915105 1.0023347 1.6690656e-38
2.7597146 0.46497136 1.0106546 1.8991945e-38
2.7597146 0.4266485 1.0106546 1.816542e-38
2.7597146 0.3883256 1.0106546 1.8072148e-38
2.7369962 0.34712148 1.0023347 1.8900826e-38
2.7597146 0.31167987 1.0106546 1.7981029e-38
2.7597146 0.27335697 1.0106546 1.8256537e-38
2.8063016 0.23900175 1.0277156 1.7244184e-38
2.8063016 0.20003195 1.0277156 1.6967241e-38
2.8063016 0.16106214 1.0277156 1.6692814e-38
2.8063016 0.12209232 1.0277156 1.4850343e-38
-0.34363717 -0.010178515 -0.12584579 1.0702624e-38
1.9502968 0.030684825 0.71423197 9.2249776e-39
1.873373 0.0034598885 0.6860612 7.1059158e-39
1.8220408 -0.021936752 0.66726243 9.4097262e-39
1.5796506 -0.040954333 0.57849503 1.0702624e-38
1.5796506 -0.062890209 0.57849503 1.2080887e-38
1.572181 -0.084424965 0.57575947 2.8534024e-39
2.8792083 -0.19459361 1.0544152 7.0184076e-39
2.9043596 -0.23662497 1.0636261 6.0935716e-39
2.9043596 -0.27695647 1.0636261 5.0837469e-39
2.9043596 -0.31728798 1.0636261 6.7425479e-39
2.9043596 -0.35761946 1.0636261 5.7388455e-39
2.9043596 -0.39795095 1.0636261 1.060649e-38
2.9043596 -0.43828246 1.0636261 1.7333513e-38
2.9299543 -0.48283172 1.0729992 2.0291697e-38
2.9043596 -0.51894546 1.0636261 2.1396234e-38
2.8792083 -0.5544337 1.0544152 2.2588661e-38
2.9043596 -0.59960842 1.0636261 1.8625347e-38
2.9043596 -0.6399399 1.0636261 1.9270343e-38
2.9043596 -0.68027145 1.0636261 1.964093e-38
2.9560039 -0.73341644 1.0825391 4.8226247e-40
2.9560039 -0.77446508 1.0825391 1.8350177e-38
3.0095184 -0.8302775 1.102137 2.1113521e-38
3.0095184 -0.8720693 1.102137 2.1389029e-38
3.0370088 -0.92220873 1.1122044 2.0835855e-38
3.0370088 -0.96438223 1.1122044 2.0745103e-38
3.065006 -1.0158349 1.1224575 1.9824586e-38
3.065006 -1.0583972 1.1224575 2.0191565e-38
3.065006 -1.1009595 1.1224575 1.9823146e-38
3.065006 -1.1435219 1.1224575 2.056143e-38
3.0935242 -1.1971201 1.1329013 1.9547641e-38
3.065006 -1.2286465 1.1224575 1.844633e-38
3.065006 -1.2712088 1.1224575 2.0195527e-38
3.065006 -1.3137711 1.1224575 1.8720043e-38
3.0095184 -1.3317789 1.102137 1.5311684e-38
2.9825211 -1.361249 1.0922501 1.0516082e-38
2.9043596 -1.3659068 1.0636261 9.3189767e-39
2.4909286 -1.2060626 0.91222054 9.779229e-39
2.4184523 -1.2045547 0.88567847 9.7788632e-39
2.3837729 -1.2203844 0.87297833 1.1250392e-38
2.3500741 -1.2357665 0.86063725 1.1525185e-38
-0.34363717 0.18547061 -0.12584579 0
-0.34363717 -0.19151185 -0.12107386 1.9081624e-38
-0.34363717 -0.18673992 -0.12107386 1.6778173e-38
-0.34363717 -0.18196799 -0.12107386 1.1618091e-38
1.0030233 0.51720768 0.35339573 7.2773479e-39
-0.34363717 -0.17242412 -0.12107386 2.9409051e-39
1.0215136 0.4983716 0.35991043 1.6687417e-38
1.0606177 0.50272119 0.37368798 1.1249309e-38
1.0640119 0.48955461 0.37488389 5.7287379e-39
1.0674279 0.47630346 0.37608746 3.7735482e-39
1.0674279 0.46148059 0.37608746 1.4104132e-38
1.0743263 0.44954425 0.37851793 1.5479876e-38
1.1687392 0.47282097 0.4117825 3.3111267e-39
1.1525334 0.45026013 0.40607274 1.0105492e-39
1.1687392 0.44036147 0.4117825 1.8438404e-38
1.1896487 0.43171975 0.41914958 1.5954529e-38
1.1896487 0.41519964 0.41914958 7.2027918e-39
1.1896487 0.39867955 0.41914958 3.7821802e-39
1.1939207 0.38353178 0.42065474 8.6797618e-39
1.1982236 0.36827481 0.42217073 8.6815555e-39
1.2025574 0.35290748 0.42369771 9.9740977e-39
1.2025574 0.33620813 0.42369771 9.8872943e-39
1.2025574 0.31950879 0.42369771 1.6421295e-38
1.2069229 0.30390865 0.42523578 1.5866674e-38
1.2069229 0.28714865 0.42523578 1.041598e-38
1.21132 0.27137381 0.42678505 2.1390118e-38
1.21132 0.25455275 0.42678505 2.1022051e-38
-0.34363717 -0.067441672 -0.12107386 2.0001413e-38
2.0338085 0.37090939 0.71657282 1.7428924e-38
2.0338085 0.34266683 0.71657282 1.641262e-38
2.009227 0.31062403 0.70791203 1.8067464e-38
2.7597146 0.3883256 0.9723317 1.9174892e-38
2.0463259 0.25952673 0.72098315 1.8809711e-38
2.8063016 0.31694138 0.98874581 1.9267809e-38
2.8063016 0.27797157 0.98874581 1.8716799e-38
2.8063016 0.23900175 0.98874581 1.7981395e-38
2.8063016 0.20003195 0.98874581 1.9452921e-38
2.8301902 0.16243316 0.9971624 1.7890637e-38
2.8063016 0.12209232 0.98874581 1.8993386e-38
1.9618046 0.058108553 0.69120371 1.1529155e-38
1.9276814 0.030329008 0.67918104 7.5701408e-39
1.8628764 0.0034405028 0.65634829 6.8304164e-39
1.6024916 -0.019293454 0.56460673 1.0517163e-38
1.572181 -0.04076067 0.55392736 1.0240933e-38
1.5796506 -0.062890209 0.55655915 1.0120149e-39
2.9043596 -0.15596199 1.0232946 1.6413713e-38
2.8792083 -0.19459361 1.014433 1.4847108e-38
2.9043596 -0.23662497 1.0232946 1.5579273e-38
2.9043596 -0.27695647 1.0232946 1.4381093e-38
2.9299543 -0.32008407 1.0323124 1.2631181e-38
2.9299543 -0.36077097 1.0323124 1.1341518e-38
2.9299543 -0.40145791 1.0323124 1.0239495e-38
2.9560039 -0.44607586 1.0414904 8.7629233e-39
2.9560039 -0.4871245 1.0414904 5.2620145e-39
2.9560039 -0.52817315 1.0414904 9.497624e-39
2.9825211 -0.57432806 1.0508332 5.9981628e-39
2.9825211 -0.61574495 1.0508332 9.6845559e-39
2.9825211 -0.65716183 1.0508332 9.5048744e-39
3.0095184 -0.70490211 1.0603452 6.4688688e-39
2.9825211 -0.73999566 1.0508332 1.5310259e-38
3.0095184 -0.78848571 1.0603452 1.954656e-38
3.0370088 -0.83786166 1.0700309 2.1851085e-38
3.0370088 -0.88003516 1.0700309 2.1298993e-38
3.0370088 -0.92220873 1.0700309 2.1020969e-38
3.065006 -0.97327256 1.0798951 2.102169e-38
3.0935242 -1.0252867 1.0899431 2.0377036e-38
3.065006 -1.0583972 1.0798951 2.0651464e-38
3.0935242 -1.1112033 1.0899431 2.0007539e-38
3.1521828 -1.1760466 1.1106102 2.0006097e-38
3.1521828 -1.2198195 1.1106102 1.8627484e-38
3.1225781 -1.251725 1.1001796 1.908882e-38
3.1225781 -1.2950867 1.1001796 1.8903351e-38
3.0935242 -1.3259951 1.0899431 1.8445973e-38
3.0370088 -1.3439441 1.0700309 1.816868e-38
2.9560039 -1.3491462 1.0414904 9.131703e-39
2.9299543 -1.3779439 1.0323124 9.5966314e-39
2.4909286 -1.2060626 0.87763017 9.4983261e-39
2.4184523 -1.2045547 0.85209453 1.087873e-38
2.3837729 -1.2203844 0.839876 9.964702e-39
2.3500741 -1.2357665 0.82800287 1.0240925e-38
-0.34363717 0.18547061 -0.12107386 0
-0.34363717 -0.19151185 -0.11630193 1.8342251e-38
-0.34363717 -0.18673992 -0.11630193 1.5298348e-38
0.95959926 0.50814164 0.3247706 1.1799616e-38
-0.34363717 -0.17719606 -0.11630193 4.0602231e-39
1.0152749 0.50942653 0.34361368 2.0925891e-38
1.0278294 0.50145298 0.34786269 1.6313222e-38
1.0439662 0.49482858 0.35332409 4.609427e-39
1.057245 0.48644114 0.35781822 3.8765465e-39
1.0674279 0.47630346 0.36126459 4.4196533e-39
1.0674279 0.46148059 0.36126459 9.7720151e-39
1.0743263 0.44954425 0.36359927 1.6573507e-39
1.1328975 0.45832098 0.38342237 9.5086509e-41
-0.34363717 -0.13424869 -0.11630193 3.7793174e-39
1.1485519 0.43275529 0.38872054 1.1254365e-38
1.1565427 0.41970563 0.39142489 9.5890798e-39
1.1525334 0.40224603 0.39006802 7.5690674e-39
1.1939207 0.4001112 0.40407529 3.7793174e-39
1.1982236 0.38491398 0.40553156 7.7657172e-39
1.2069229 0.37094855 0.40847579 7.8571996e-39
1.2069229 0.35418859 0.40847579 1.2734909e-38
1.2069229 0.3374286 0.40847579 1.7052608e-38
1.21132 0.32183692 0.409964 1.3550621e-38
1.2069229 0.30390865 0.40847579 1.0434364e-38
1.2202113 0.29031023 0.4129732 4.8072441e-39
1.2202113 0.27336571 0.4129732 1.3563256e-38
1.2247061 0.25736576 0.4144944 1.0625589e-38
1.2476858 0.24486879 0.42227176 1.5306662e-38
2.7828131 0.50750679 0.9418264 2.5782406e-39
2.0463259 0.34477589 0.69256675 4.5157838e-39
2.0463259 0.31635949 0.69256675 6.631247e-39
2.0463259 0.28794312 0.69256675 6.5455324e-39
2.0338085 0.25793919 0.68833023 7.3742085e-39
2.0463259 0.23111036 0.69256675 8.5691433e-39
2.0463259 0.20269398 0.69256675 1.3727411e-38
2.8063016 0.23900175 0.94977599 1.8347651e-38
2.8544888 0.2034667 0.9660846 1.8994825e-38
2.8544888 0.16382773 0.9660846 1.9823862e-38
2.8063016 0.12209232 0.94977599 1.8997336e-38
1.9734491 0.058453463 0.66790199 6.5556329e-39
1.9165694 0.030154176 0.64865136 8.6703619e-39
1.8628764 0.0034405028 0.63047934 8.7629205e-39
1.5948049 -0.019200908 0.53975219 9.7785087e-39
1.5871916 -0.04114984 0.53717548 9.7831933e-39
-0.34363717 0.013681134 -0.11630193 1.7519695e-38
2.9043596 -0.15596199 0.98296309 1.9639111e-38
2.9299543 -0.19802332 0.99162543 1.9086297e-38
2.9560039 -0.24083257 1.0004418 1.7520416e-38
2.9299543 -0.27939716 0.99162543 1.7521137e-38
2.9560039 -0.32292989 1.0004418 1.7610457e-38
2.9560039 -0.36397853 1.0004418 1.6045286e-38
2.9560039 -0.40502718 1.0004418 1.6412635e-38
2.9560039 -0.44607586 1.0004418 1.521589e-38
2.9825211 -0.4914943 1.0094163 1.6595222e-38
2.9825211 -0.53291118 1.0094163 1.6498356e-38
2.9825211 -0.57432806 1.0094163 1.3003195e-38
3.0095184 -0.62131858 1.0185534 1.0883786e-38
3.0095184 -0.66311038 1.0185534 1.1620265e-38
3.0370088 -0.71134108 1.0278573 1.069902e-38
3.065006 -0.76046097 1.0373329 1.5771593e-38
3.065006 -0.80302334 1.0373329 2.1021325e-38
3.0370088 -0.83786166 1.0278573 2.0929494e-38
3.065006 -0.88814795 1.0373329 2.0836934e-38
3.0935242 -0.93937004 1.0469847 2.0560347e-38
3.0935242 -0.98232836 1.0469847 2.0559991e-38
3.1225781 -1.034916 1.0568178 1.9272132e-38
3.1225781 -1.0782778 1.0568178 1.9822426e-38
3.1225781 -1.1216396 1.0568178 2.000646e-38
3.1521828 -1.1760466 1.0668374 2.0194088e-38
3.1521828 -1.2198195 1.0668374 1.7706967e-38
3.1521828 -1.2635925 1.0668374 1.7523296e-38
3.1225781 -1.2950867 1.0568178 1.9457245e-38
3.065006 -1.3137711 1.0373329 1.9916061e-38
3.0370088 -1.3439441 1.0278573 1.0517876e-38
2.9560039 -1.3491462 1.0004418 1.2264187e-38
2.548202 -1.1984076 0.86242372 1.0699386e-38
2.4724052 -1.1970938 0.83677071 9.870347e-39
2.4184523 -1.2045547 0.81851059 9.5966314e-39
2.3837729 -1.2203844 0.8067736 1.1342588e-38
2.3500741 -1.2357665 0.79536849 1.1343674e-38
-0.34363717 0.18547061 -0.11630193 0
-0.34363717 -0.19151185 -0.11153001 7.4530763e-39
-0.34363717 -0.18673992 -0.11153001 1.5118295e-38
0.93794245 0.49667361 0.30441624 1.3365855e-38
0.95959926 0.49481612 0.31144509 1.4466062e-38
1.0152749 0.50942653 0.32951504 7.2686865e-39
-0.34363717 -0.1676522 -0.11153001 8.2079558e-39
0.99700767 0.47257078 0.32358629 9.1284674e-39
1.0060583 0.46289003 0.32652375 1.1721821e-38
1.012184 0.45165274 0.32851186 8.7719406e-39
1.012184 0.43759701 0.32851186 8.3887443e-39
1.0152749 0.42483461 0.32951504 5.4413554e-39
1.0215136 0.41325989 0.33153984 5.5288721e-39
-0.34363717 -0.13424869 -0.11153001 1.152375e-38
-0.34363717 -0.12947676 -0.11153001 1.06043e-38
1.0919685 0.39627188 0.35440654 1.4477969e-38
1.0674279 0.37254333 0.34644172 1.4659479e-38
1.0640119 0.35657567 0.34533301 1.1525189e-38
1.1854072 0.38079691 0.38473275 1.0052203e-38
1.21132 0.37230003 0.39314297 1.0247791e-38
1.2157494 0.35677886 0.39458054 1.0892437e-38
1.2202113 0.34114376 0.39602867 1.4939319e-38
1.2202113 0.32419923 0.39602867 1.6324412e-38
1.2202113 0.30725473 0.39602867 1.1353061e-38
1.2247061 0.2913796 0.39748749 7.3923062e-39
1.2247061 0.27437267 0.39748749 9.9759068e-39
1.229234 0.25831729 0.39895707 9.7043506e-39
2.8063016 0.55076027 0.91080618 1.0887032e-38
2.8301902 0.51614702 0.91855931 2.2220754e-39
2.8063016 0.47282061 0.91080618 1.6815582e-44
2.084821 0.32231075 0.67664415 2.2087378e-39
2.0718293 0.29153174 0.67242765 2.39169e-39
2.0589988 0.26113397 0.66826338 3.3140022e-39
2.0589988 0.23254161 0.66826338 3.1375311e-39
2.0718293 0.20522015 0.67242765 4.151683e-39
2.8544888 0.24310566 0.9264456 3.4043888e-39
2.8792083 0.20522869 0.93446851 1.9823508e-38
2.8792083 0.16524646 0.93446851 2.0747975e-38
-0.34363717 -0.014950445 -0.11153001 8.7672365e-39
1.9734491 0.058453463 0.64049762 5.820935e-39
1.9165694 0.030154176 0.62203687 6.3712361e-39
1.6180896 0.0029884116 0.52516305 8.7665232e-39
1.5948049 -0.019200908 0.51760584 9.1356616e-39
1.6024916 -0.041546512 0.52010065 1.8871847e-40
-0.34363717 0.013681134 -0.11153001 2.0099013e-38
2.9560039 -0.15873526 0.95939314 1.8723273e-38
2.9560039 -0.19978391 0.95939314 1.9823865e-38
2.9560039 -0.24083257 0.95939314 2.0006817e-38
2.9825211 -0.28440988 0.96799946 1.9547278e-38
2.9825211 -0.32582676 0.96799946 1.9270692e-38
2.9825211 -0.36724365 0.96799946 1.9179936e-38
2.9825211 -0.40866053 0.96799946 1.9454365e-38
2.9825211 -0.45007741 0.96799946 1.8902272e-38
3.0095184 -0.49594322 0.97676164 1.8717881e-38
3.0095184 -0.53773499 0.97676164 1.8348378e-38
3.0370088 -0.58482045 0.98568386 1.6230042e-38
3.065006 -0.63277406 0.99477053 1.6777817e-38
3.0370088 -0.66916752 0.98568386 1.6966167e-38
3.0370088 -0.71134108 0.98568386 1.7704808e-38
3.065006 -0.76046097 0.99477053 2.0374877e-38
3.065006 -0.80302334 0.99477053 2.0101893e-38
3.065006 -0.84558564 0.99477053 2.1112442e-38
3.065006 -0.88814795 0.99477053 2.0652543e-38
3.0935242 -0.93937004 1.0040263 2.0376676e-38
3.1225781 -0.99155426 1.013456 1.9638755e-38
3.1521828 -1.0447279 1.0230645 1.9178496e-38
3.1521828 -1.0885009 1.0230645 1.9364328e-38
3.1521828 -1.1322738 1.0230645 2.0838017e-38
3.1823545 -1.1873034 1.0328569 1.9640915e-38
3.1823545 -1.2314953 1.0328569 1.9183175e-38
3.1823545 -1.2756871 1.0328569 1.9640916e-38
3.1521828 -1.3073654 1.0230645 1.9547641e-38
3.0935242 -1.3259951 1.0040263 1.8075048e-38
3.0370088 -1.3439441 0.98568386 8.5810431e-39
2.9825211 -1.361249 0.96799946 1.0699386e-38
2.5288205 -1.1892926 0.82074755 1.1343674e-38
2.4724052 -1.1970938 0.80243754 1.0516072e-38
2.4184523 -1.2045547 0.78492671 1.0883409e-38
2.4009874 -1.2291974 0.77925837 1.0609344e-38
2.3500741 -1.2357665 0.76273406 1.0791929e-38
-0.34363717 0.18547061 -0.11153001 0
0.96237683 0.53634065 0.2989825 0
0.93007106 0.50542086 0.28894603 1.5209408e-38
0.93007106 0.49250543 0.28894603 1.4107736e-38
0.95959926 0.49481612 0.29811957 2.1251924e-39
0.96517062 0.48428613 0.29985043 6.9978617e-39
0.95683759 0.46681777 0.29726163 1.3457682e-38
0.96798062 0.45881227 0.30072343 1.318938e-38
0.97080708 0.44667083 0.30160153 2.0384606e-38
0.97080708 0.43318969 0.30160153 2.130583e-38
0.98519045 0.42592689 0.30607003 2.2499695e-38
0.96798062 0.40504467 0.30072343 2.0109098e-38
1.0030233 0.40577951 0.31161016 2.1030327e-38
1.0152749 0.39663732 0.31541637 1.8638295e-38
-0.34363717 -0.12947676 -0.10675807 7.1746481e-43
1.0215136 0.37070403 0.31735456 1.99989e-38
1.070866 0.37374324 0.33268693 1.9636237e-38
1.0743263 0.36003223 0.33376193 3.8632411e-39
-0.34363717 -0.11038904 -0.10675807 2.770936e-39
1.0505636 0.32289144 0.32637957 1.4663441e-38
-0.34363717 -0.10084518 -0.10675807 1.1618828e-38
1.0919685 0.30528992 0.33924288 1.7335312e-38
1.077809 0.2863642 0.3348439 1.2544757e-38
1.0848426 0.27316827 0.33702904 9.0384255e-39
1.2337955 0.29354218 0.38330442 1.0054748e-38
1.2337955 0.27640903 0.38330442 1.3565756e-38
-0.34363717 -0.072213605 -0.10675807 1.9179945e-38
2.8301902 0.55544853 0.8792578 1.8158582e-38
2.8301902 0.51614702 0.8792578 1.7332067e-38
2.8301902 0.47684547 0.8792578 1.7152354e-38
2.1247919 0.32849023 0.66011101 1.5586486e-38
2.0979764 0.29521096 0.65178025 1.4729707e-39
2.0979764 0.26607734 0.65178025 3.6842799e-40
2.8544888 0.32238358 0.88680667 4.6531657e-40
2.8301902 0.28033778 0.8792578 8.3482776e-40
2.8792083 0.24521092 0.89448631 5.8148309e-39
2.9043596 0.20702147 0.90230006 1.9914976e-38
2.9043596 0.16668998 0.90230006 2.0373801e-38
2.8792083 0.12526423 0.89448631 2.1021695e-38
1.9734491 0.058453463 0.61309326 7.6590868e-39
1.9055846 0.029981349 0.59200972 6.5567091e-39
1.6102529 0.0029739381 0.50025874 8.2990626e-39
1.6024916 -0.019293454 0.49784756 8.0318308e-39
1.5948049 -0.041347224 0.49545953 1.0264511e-40
2.9825211 -0.11874232 0.92658257 2.0102249e-38
2.9560039 -0.15873526 0.9183445 2.0195883e-38
2.9825211 -0.20157608 0.92658257 2.0284125e-38
2.9825211 -0.24299298 0.92658257 2.0191929e-38
2.9825211 -0.28440988 0.92658257 2.0192285e-38
3.0095184 -0.32877606 0.93496984 2.0286285e-38
3.0095184 -0.37056786 0.93496984 2.0835855e-38
2.9825211 -0.40866053 0.92658257 2.0653263e-38
3.0095184 -0.45415142 0.93496984 2.028376e-38
3.0095184 -0.49594322 0.93496984 2.1297556e-38
3.0370088 -0.54264694 0.94351029 1.9822426e-38
3.065006 -0.59021175 0.95220822 2.0652187e-38
3.065006 -0.63277406 0.95220822 1.9272132e-38
3.065006 -0.67533636 0.95220822 1.8808274e-38
3.0935242 -0.72457832 0.96106803 1.9452923e-38
3.0935242 -0.7675367 0.96106803 2.0837654e-38
3.0935242 -0.81049502 0.96106803 2.0653263e-38
3.0935242 -0.85345334 0.96106803 2.0192648e-38
3.1225781 -0.90483063 0.9700942 2.0283404e-38
3.1521828 -0.95718217 0.97929156 2.0836934e-38
3.1521828 -1.0009551 0.97929156 1.9638755e-38
3.1521828 -1.0447279 0.97929156 2.0559271e-38
3.1823545 -1.0989196 0.98866498 2.0099735e-38
3.1823545 -1.1431115 0.98866498 2.0008619e-38
3.1823545 -1.1873034 0.98866498 2.019193e-38
3.1823545 -1.2314953 0.98866498 1.9365407e-38
3.2131093 -1.2880156 0.99821961 1.9457605e-38
3.1521828 -1.3073654 0.97929156 1.8811876e-38
3.0935242 -1.3259951 0.96106803 7.6587351e-39
3.0370088 -1.3439441 0.94351029 8.5835655e-39
2.6287935 -1.1998045 0.81668967 1.1160001e-38
2.5288205 -1.1892926 0.785631 1.0883414e-38
2.4541554 -1.1882576 0.76243472 1.1804286e-38
2.4184523 -1.2045547 0.75134277 1.0976686e-38
2.4009874 -1.2291974 0.74591696 1.1249314e-38
2.3500741 -1.2357665 0.73009968 1.0149439e-38
-0.34363717 0.18547061 -0.10675807 0
0.97080708 0.54103887 0.28812039 0
0.92233068 0.50121462 0.27373335 9.8602619e-39
0.93007106 0.49250543 0.27603057 8.2043433e-39
0.97365004 0.50206137 0.28896412 1.8369762e-40
0.97938621 0.49141899 0.29066655 4.2374145e-39
0.97650969 0.47641531 0.28981283 1.2164783e-38
0.97650969 0.46285498 0.28981283 1.1708125e-38
0.97365004 0.44797888 0.28896412 1.2168746e-38
0.97650969 0.4357343 0.28981283 1.3271866e-38
0.97365004 0.42093763 0.28896412 1.3635244e-38
0.97938621 0.40981728 0.29066655 1.3456612e-38
0.97650969 0.39505327 0.28981283 1.1342596e-38
0.97080708 0.3792651 0.28812039 1.3740403e-38
0.97080708 0.36578393 0.28812039 2.1847853e-38
0.97365004 0.35333449 0.28896412 1.9183183e-38
0.97938621 0.34181586 0.29066655 1.7154158e-38
-0.34363717 -0.11516097 -0.10198614 1.9450767e-38
1.0215136 0.32814819 0.30316928 7.4772179e-39
1.0505636 0.32289144 0.31179088 1.5954168e-38
1.037451 0.30445468 0.30789927 1.4916601e-38
1.0310167 0.28824919 0.30598968 1.8071431e-38
1.0640119 0.28269845 0.31578213 2.9585797e-39
1.0883938 0.27406251 0.32301831 6.5451779e-39
1.2430211 0.29573709 0.36890924 1.4009785e-38
1.2383912 0.27743858 0.36753517 1.890589e-38
-0.34363717 -0.072213605 -0.10198614 1.7059793e-38
-0.34363717 -0.067441672 -0.10198614 3.4112551e-39
1.4680517 0.26773128 0.43569481 1.5764732e-38
1.4745625 0.24844213 0.43762714 1.9722655e-38
1.4811314 0.22898112 0.43957672 1.5402075e-38
1.4811314 0.20841333 0.43957672 1.2925521e-39
1.4615979 0.1853682 0.43377945 4.6929486e-42
2.8301902 0.31963933 0.83995628 1.9729873e-38
2.9043596 0.28768447 0.86196858 1.9271412e-38
2.9043596 0.24735296 0.86196858 1.9456515e-38
2.9043596 0.20702147 0.86196858 1.9271768e-38
2.9299543 0.16815893 0.86956465 1.9639474e-38
2.9043596 0.12635848 0.86196858 1.8999154e-38
1.9852327 0.058802489 0.58918607 6.0931974e-39
1.6502143 0.025963504 0.48975787 6.3708717e-39
1.6260029 0.0030030266 0.48257229 4.6216701e-39
1.6024916 -0.019293454 0.47559452 1.8944154e-40
1.6420642 -0.04257248 0.48733902 1.1167872e-39
3.0095184 -0.11981715 0.89317805 2.0838372e-38
2.9825211 -0.1601592 0.88516569 2.065398e-38
2.9825211 -0.20157608 0.88516569 2.0835855e-38
3.0095184 -0.2451925 0.89317805 2.1390108e-38
3.0095184 -0.28698429 0.89317805 2.1390828e-38
3.0095184 -0.32877606 0.89317805 2.0560347e-38
3.0370088 -0.37395281 0.90133679 2.1573423e-38
3.0095184 -0.41235965 0.89317805 2.1206081e-38
3.065006 -0.4625248 0.90964592 2.0836934e-38
3.0370088 -0.50047338 0.90133679 2.1114241e-38
3.065006 -0.54764944 0.90964592 2.0561067e-38
3.065006 -0.59021175 0.90964592 2.0652907e-38
3.0935242 -0.63866168 0.91810966 2.1205361e-38
3.0935242 -0.68162 0.91810966 2.0283404e-38
3.0935242 -0.72457832 0.91810966 2.0467796e-38
3.1225781 -0.77474529 0.92673242 2.1020249e-38
3.1225781 -0.81810707 0.92673242 2.0561067e-38
3.1225781 -0.86146885 0.92673242 2.0929494e-38
3.1521828 -0.91340923 0.93551868 2.0284125e-38
3.1521828 -0.95718217 0.93551868 1.9823865e-38
3.1823545 -1.0105358 0.94447315 1.9913899e-38
3.1823545 -1.0547277 0.94447315 1.9270329e-38
3.2131093 -1.1095397 0.95360065 1.9815942e-38
3.1823545 -1.1431115 0.94447315 1.8717155e-38
3.1521828 -1.1760466 0.93551868 1.7798441e-38
3.0935242 -1.1971201 0.91810966 1.9549441e-38
3.065006 -1.2286465 0.90964592 1.9272498e-38
3.1225781 -1.2950867 0.92673242 1.8536728e-38
3.0935242 -1.3259951 0.91810966 1.042568e-38
3.0370088 -1.3439441 0.90133679 9.4115199e-39
2.6081715 -1.1903925 0.77406454 1.0883414e-38
2.5288205 -1.1892926 0.75051445 1.1435504e-38
2.4724052 -1.1970938 0.73377126 1.0512478e-38
2.4184523 -1.2045547 0.71775883 9.3222123e-39
2.4009874 -1.2291974 0.71257555 1.1341876e-38
2.3500741 -1.2357665 0.6974653 1.1342953e-38
-0.34363717 0.18547061 -0.10198614 0
0.98519045 0.54905486 0.27870825 0
0.91471809 0.49707776 0.25877178 7.1883879e-39
0.92747653 0.49113154 0.26238114 7.1909018e-39
0.98227978 0.50651133 0.27788484 1.3647858e-38
0.98227978 0.49287084 0.27788484 2.1762165e-42
0.98227978 0.47923037 0.27788484 1.0130365e-38
0.98227978 0.46558991 0.27788484 7.009393e-39
0.98227978 0.45194945 0.27788484 7.1923451e-39
0.98519045 0.43960777 0.27870825 9.2127331e-39
0.98811841 0.42719275 0.27953658 1.0040683e-38
0.98811841 0.41347119 0.27953658 8.5723915e-39
0.99106383 0.40094125 0.28036982 1.0319081e-38
0.99106383 0.38717881 0.28036982 1.2990955e-38
0.99106383 0.37341636 0.28036982 1.3360816e-38
0.99402684 0.36072919 0.28120807 1.3729233e-38
0.99402684 0.34692562 0.28120807 1.5759343e-38
1.0000064 0.33512589 0.28289968 1.7972751e-38
0.99402684 0.31931841 0.28120807 1.8250422e-38
0.99700767 0.306431 0.28205132 1.9362887e-38
1.0000064 0.29346603 0.28289968 1.7245641e-38
1.0030233 0.28042284 0.28375313 1.7149489e-38
1.0000064 0.26569277 0.28289968 1.2917141e-38
-0.34363717 -0.086529389 -0.097214215 9.5159754e-39
-0.34363717 -0.081757464 -0.097214215 5.9876755e-39
-0.34363717 -0.076985531 -0.097214215 6.8231969e-39
-0.34363717 -0.072213605 -0.097214215 6.0917499e-39
-0.34363717 -0.067441672 -0.097214215 7.467846e-39
1.4680517 0.26773128 0.41530865 5.9876755e-39
1.4615979 0.2462578 0.41348293 6.8231969e-39
1.4680517 0.22695899 0.41530865 6.0917499e-39
1.4615979 0.20566472 0.41348293 7.467846e-39
1.4615979 0.1853682 0.41348293 6.093552e-39
1.4680517 0.16580053 0.41530865 1.0041038e-38
1.4745625 0.1460593 0.41715059 1.4005084e-38
1.4877592 0.12670664 0.42088389 1.8617747e-38
2.9043596 0.20702147 0.82163709 1.9271046e-38
2.9299543 0.16815893 0.82887775 2.0376676e-38
2.9299543 0.12747201 0.82887775 1.9548353e-38
1.9971577 0.05915571 0.56499165 1.8572572e-39
-0.34363717 -0.0054065851 -0.097214215 2.0746185e-38
1.6339941 0.0030177853 0.46225342 4.9890135e-39
1.6180896 -0.019481247 0.45775405 1.9379075e-39
1.6420642 -0.04257248 0.46453643 2.0376589e-39
3.0370088 -0.12091161 0.85916322 2.046815e-38
3.0095184 -0.16160893 0.85138625 2.0746896e-38
3.0095184 -0.20340072 0.85138625 2.0746542e-38
3.0370088 -0.2474322 0.85916322 2.0929494e-38
3.0370088 -0.28960574 0.85916322 2.1113521e-38
3.065006 -0.33483785 0.86708361 2.1389032e-38
3.0935242 -0.38091165 0.87515134 2.1205717e-38
3.065006 -0.41996247 0.86708361 2.129719e-38
3.065006 -0.4625248 0.86708361 2.1482303e-38
3.0935242 -0.50978667 0.87515134 2.0746898e-38
3.0935242 -0.55274498 0.87515134 2.0745822e-38
3.0935242 -0.59570336 0.87515134 2.0559271e-38
3.0935242 -0.63866168 0.87515134 2.056143e-38
3.1225781 -0.68802166 0.88337064 2.0653626e-38
3.1225781 -0.7313835 0.88337064 2.0836578e-38
3.1521828 -0.78209054 0.89174575 2.0467796e-38
3.1823545 -0.83376831 0.90028125 2.0745103e-38
3.1521828 -0.86963636 0.89174575 2.0836578e-38
3.1521828 -0.91340923 0.89174575 1.9455083e-38
3.1823545 -0.96634394 0.90028125 1.9913902e-38
3.1823545 -1.0105358 0.90028125 1.9911389e-38
3.1823545 -1.0547277 0.90028125 1.9271063e-38
3.2444642 -1.1203671 0.91785192 7.1948605e-39
3.2131093 -1.1541587 0.90898168 5.6199832e-39
3.1521828 -1.1760466 0.89174575 1.9271412e-38
3.0935242 -1.1971201 0.87515134 1.7893162e-38
3.0095184 -1.2064036 0.85138625 1.7063752e-38
2.9299543 -1.2151963 0.82887775 1.2366833e-38
2.9299543 -1.2558831 0.82887775 9.2274929e-39
2.7369962 -1.2111819 0.77429032 9.6870334e-39
2.5878704 -1.181127 0.73210299 1.0605743e-38
2.5288205 -1.1892926 0.71539789 8.4906496e-39
2.4724052 -1.1970938 0.69943815 9.7788717e-39
2.4184523 -1.2045547 0.6841749 1.1068169e-38
2.4009874 -1.2291974 0.67923415 1.22649e-38
2.3668034 -1.2445636 0.66956365 1.0517867e-38
-0.34363717 0.18547061 -0.097214215 0
1.0030233 0.55899322 0.26982459 0
0.91977912 0.49982801 0.247431 8.5706006e-39
0.91724163 0.48571178 0.24674837 6.6406105e-39
1.0030233 0.51720768 0.26982459 2.101629e-38
1.0060583 0.50480205 0.27064109 1.4296095e-38
1.0060583 0.49083138 0.27064109 6.5379738e-39
0.99700767 0.47257078 0.26820636 6.9085556e-39
0.99700767 0.45872581 0.26820636 7.4638874e-39
0.99700767 0.44488081 0.26820636 8.7513892e-39
0.99700767 0.43103585 0.26820636 9.1212493e-39
0.99402684 0.41594356 0.26740447 8.298327e-39
0.99700767 0.40334588 0.26820636 8.9390174e-39
1.0000064 0.39067242 0.26901305 8.7582275e-39
0.99700767 0.37565589 0.26820636 9.95101e-39
1.0030233 0.36399394 0.26982459 1.0413067e-38
1.0030233 0.35006544 0.26982459 9.4017948e-39
1.0060583 0.33715406 0.27064109 1.1150638e-38
1.012184 0.32515115 0.27228895 1.3361894e-38
1.0152749 0.31204543 0.27312043 1.4104854e-38
1.0152749 0.29794675 0.27312043 1.8065307e-38
1.0152749 0.28384811 0.27312043 1.8622084e-38
1.0152749 0.26974946 0.27312043 1.8257982e-38
1.0152749 0.25565082 0.27312043 1.9364329e-38
1.0030233 0.23863728 0.26982459 1.9638757e-38
1.0060583 0.22538872 0.27064109 1.6134967e-38
1.0000064 0.21014628 0.26901305 1.6414077e-38
1.4745625 0.28939527 0.39667401 1.0101905e-39
1.4811314 0.27011669 0.39844114 2.4842429e-39
1.4811314 0.2495489 0.39844114 3.5873535e-39
1.4745625 0.22796556 0.39667401 2.0265046e-39
1.4745625 0.207489 0.39667401 4.5129069e-39
1.4680517 0.18618669 0.39492249 4.1527606e-39
1.4680517 0.16580053 0.39492249 7.0972642e-39
1.4745625 0.1460593 0.39667401 7.0068679e-39
1.4877592 0.12670664 0.40022406 6.9164771e-39
1.5011942 0.10700446 0.40383822 5.7190003e-39
2.9560039 0.169654 0.7951985 1.9547641e-38
2.9825211 0.12975901 0.80233192 1.9546921e-38
2.9560039 0.08755669 0.7951985 7.1030642e-39
-0.34363717 -0.0054065851 -0.092442282 2.1114601e-38
1.6584458 0.0030629446 0.44614071 5.0779777e-39
1.6420642 -0.019769894 0.44173384 9.2412691e-40
-0.34363717 0.008909204 -0.092442282 2.0469232e-38
3.0095184 -0.11981715 0.80959445 2.0561067e-38
3.0370088 -0.16308515 0.81698972 2.0653623e-38
3.0370088 -0.20525868 0.81698972 2.1389029e-38
3.065006 -0.24971321 0.8245213 2.1390108e-38
3.065006 -0.29227552 0.8245213 2.0653263e-38
3.0935242 -0.33795333 0.83219302 2.0836934e-38
3.0935242 -0.38091165 0.83219302 2.1482303e-38
3.065006 -0.41996247 0.8245213 2.1390108e-38
3.0935242 -0.46682835 0.83219302 2.1022046e-38
3.0935242 -0.50978667 0.83219302 2.1667778e-38
3.1225781 -0.55793631 0.84000885 2.1297556e-38
3.1225781 -0.60129809 0.84000885 2.1113165e-38
3.1225781 -0.64465988 0.84000885 2.0743662e-38
3.1521828 -0.69454473 0.84797287 2.0100449e-38
3.1521828 -0.73831767 0.84797287 2.0928774e-38
3.1823545 -0.78957641 0.85608935 1.9916061e-38
3.1823545 -0.83376831 0.85608935 2.1296836e-38
3.1521828 -0.86963636 0.84797287 2.0468516e-38
3.1823545 -0.9221521 0.85608935 2.0468517e-38
3.1823545 -0.96634394 0.85608935 1.9914622e-38
3.2131093 -1.0203018 0.86436272 1.9179938e-38
3.2131093 -1.0649208 0.86436272 9.8718044e-39
3.276437 -1.1314079 0.88139868 8.2086705e-39
3.1823545 -1.1431115 0.85608935 6.1792834e-39
3.0935242 -1.1541617 0.83219302 8.4762596e-39
3.065006 -1.1860842 0.8245213 1.4847843e-38
3.0370088 -1.2174234 0.81698972 2.5793238e-39
2.9299543 -1.2151963 0.78819084 8.9545158e-39
2.9299543 -1.2558831 0.78819084 1.0513913e-38
2.6710315 -1.181991 0.71853769 9.5055218e-39
2.567883 -1.1720045 0.69078964 1.1986879e-38
2.5097315 -1.1803151 0.67514616 1.1525545e-38
2.4724052 -1.1970938 0.66510499 1.0425672e-38
2.4184523 -1.2045547 0.65059102 1.0425672e-38
2.4009874 -1.2291974 0.64589274 1.2263106e-38
2.3837729 -1.2534868 0.64126188 1.2079795e-38
-0.34363717 0.18547061 -0.092442282 0
1.012184 0.56409854 0.25823322 0
0.91724163 0.49844909 0.23401107 8.2050537e-39
0.92233068 0.48840663 0.23530942 9.0301383e-39
0.92489648 0.47692168 0.23596402 1.5668933e-38
1.0091119 0.50633419 0.25744945 2.1573423e-38
1.0152749 0.49532789 0.25902176 6.8134789e-39
1.0152749 0.48122922 0.25902176 7.464623e-39
1.0152749 0.46713057 0.25902176 7.9266704e-39
1.0183847 0.45441955 0.25981516 6.5433786e-39
1.0183847 0.44027773 0.25981516 5.3502374e-39
1.0215136 0.42744517 0.26061341 7.277708e-39
1.0246618 0.4145335 0.26141661 6.5408563e-39
1.0183847 0.39785221 0.25981516 7.0933112e-39
1.0246618 0.3860755 0.26141661 7.0961838e-39
1.0215136 0.37070403 0.26061341 9.4885913e-39
1.0152749 0.35434136 0.25902176 9.8598933e-39
1.0152749 0.34024271 0.25902176 1.0597458e-38
1.0152749 0.32614407 0.25902176 1.1519417e-38
1.0215136 0.31396288 0.26061341 1.0597461e-38
1.0246618 0.3007015 0.26141661 1.0414869e-38
1.0215136 0.28559232 0.26061341 1.1059518e-38
1.0246618 0.27224347 0.26141661 1.0779329e-38
1.0342239 0.26042226 0.26385614 1.0692891e-38
1.0505636 0.24994799 0.2680248 1.6405782e-38
1.7925699 0.40159205 0.45732901 1.6134235e-38
1.8220408 0.38289261 0.46484774 2.5058636e-39
1.8524969 0.36356804 0.47261786 1.9476479e-39
1.873373 0.34165049 0.47794387 1.9379383e-39
1.5358678 0.25877115 0.39183792 1.0145317e-39
1.4877592 0.23000576 0.37956426 1.0818024e-42
1.4877592 0.20934594 0.37956426 1.4419361e-42
1.4811314 0.18784554 0.37787336 1.7992672e-42
1.4811314 0.16727775 0.37787336 1.0137862e-39
1.9971577 0.19782373 0.50952441 1.7535148e-39
1.9852327 0.16907451 0.50648206 4.4217889e-39
2.0463259 0.14586121 0.5220685 2.3045446e-39
2.9825211 0.1711759 0.76091504 1.9731667e-38
3.0095184 0.13093357 0.76780272 1.9271403e-38
3.0095184 0.089141779 0.76780272 1.7892444e-38
-0.34363717 -0.0054065851 -0.087670356 2.0837654e-38
1.6751578 0.0030938094 0.42737424 6.3615153e-39
1.6751578 -0.020168329 0.42737424 7.4153772e-40
1.7008667 -0.044097006 0.43393326 3.9683792e-39
3.0935242 -0.12316165 0.7892347 2.1114241e-38
3.0370088 -0.16308515 0.77481616 2.0838014e-38
3.0935242 -0.20907833 0.7892347 2.1020246e-38
3.0935242 -0.25203666 0.7892347 2.1482303e-38
3.0935242 -0.29499498 0.7892347 2.092985e-38
3.1225781 -0.34112734 0.79664707 2.0561067e-38
3.1225781 -0.38448912 0.79664707 2.1391188e-38
3.0935242 -0.42387 0.7892347 2.1206437e-38
3.1225781 -0.47121271 0.79664707 2.1114241e-38
3.1225781 -0.51457453 0.79664707 2.0839093e-38
3.1225781 -0.55793631 0.79664707 2.1205361e-38
3.1521828 -0.60699892 0.80419999 2.092913e-38
3.1521828 -0.65077186 0.80419999 2.0560347e-38
3.1823545 -0.70119268 0.81189746 2.0928774e-38
3.1823545 -0.74538457 0.81189746 2.0191209e-38
3.1823545 -0.78957641 0.81189746 2.0375956e-38
3.2131093 -0.84182596 0.81974375 1.9638755e-38
3.1823545 -0.87796021 0.81189746 1.973311e-38
3.1823545 -0.9221521 0.81189746 2.1020969e-38
3.2131093 -0.97568285 0.81974375 1.9730952e-38
3.2444642 -1.0302584 0.82774317 1.9637678e-38
3.2444642 -1.0753127 0.82774317 1.2088469e-38
3.276437 -1.1314079 0.83590031 1.1534903e-38
3.1823545 -1.1431115 0.81189746 2.4057464e-39
3.1521828 -1.1760466 0.80419999 1.3921186e-38
3.065006 -1.1860842 0.78195894 1.0231777e-39
3.0095184 -1.2064036 0.76780272 1.7603602e-39
2.9560039 -1.2260003 0.75414985 8.7697504e-39
2.8792083 -1.2341316 0.73455739 1.1157839e-38
2.649744 -1.1725708 0.67601538 1.070154e-38
2.567883 -1.1720045 0.65513062 1.1250758e-38
2.5288205 -1.1892926 0.64516479 1.245434e-38
2.4724052 -1.1970938 0.63077182 1.1343309e-38
2.436173 -1.2133808 0.62152809 1.1346909e-38
2.4009874 -1.2291974 0.61255133 1.2446063e-38
2.3668034 -1.2445636 0.60383022 1.1435504e-38
-0.34363717 0.18547061 -0.087670356 0
1.0183847 0.56755424 0.24567333 0
1.0183847 0.55341244 0.24567333 8.2986927e-39
0.91977912 0.48705548 0.2218859 8.8489812e-39
0.93007106 0.47958997 0.22436871 7.5585997e-39
1.0215136 0.51255691 0.24642815 1.8244303e-38
1.0183847 0.49684507 0.24567333 6.725602e-39
1.0215136 0.48418632 0.24642815 9.7651768e-39
1.0215136 0.47000101 0.24642815 8.5720342e-39
1.0246618 0.45722052 0.2471876 7.3752959e-39
1.0278294 0.444361 0.24795178 8.8468218e-39
1.0310167 0.4314217 0.24872068 9.1230542e-39
1.0278294 0.415815 0.24795178 9.2141666e-39
1.0310167 0.40278721 0.24872068 7.009393e-39
1.0342239 0.38967836 0.24949436 8.2036132e-39
1.037451 0.3764877 0.25027287 7.4703712e-39
1.0406984 0.36321443 0.25105625 7.5575305e-39
1.0439662 0.34985787 0.25184456 6.8206787e-39
1.0439662 0.33536077 0.25184456 7.1880221e-39
1.0472544 0.32187438 0.25263783 9.4025207e-39
1.0505636 0.30830276 0.25343612 8.2950928e-39
1.0472544 0.29278889 0.25263783 9.9524491e-39
1.037451 0.27564147 0.25027287 9.8620527e-39
1.037451 0.26123488 0.25027287 1.234953e-38
1.1028347 0.26238424 0.26604593 9.3124803e-39
1.718449 0.38498664 0.41455561 9.2228098e-39
1.7455148 0.36681104 0.42108491 6.6445776e-39
1.7640371 0.34620708 0.42555323 8.5817676e-39
1.7734466 0.32342672 0.42782316 1.0513913e-38
1.5429956 0.2599721 0.37222955 1.0703353e-38
1.5429956 0.23854522 0.37222955 1.3782555e-39
1.5288055 0.21512164 0.36880636 1.6566417e-39
1.5288055 0.19389184 0.36880636 8.3084668e-40
1.9276814 0.21771073 0.46503049 3.695168e-40
1.9502968 0.19318204 0.47048619 8.4237095e-40
1.9852327 0.16907451 0.47891405 6.2768867e-39
1.9971577 0.14235651 0.48179084 1.5767255e-38
2.9825211 0.1711759 0.71949816 1.9453998e-38
3.0095184 0.13093357 0.72601092 1.9548719e-38
3.0370088 0.089956045 0.73264265 1.8813313e-38
3.0370088 0.047782511 0.73264265 7.9593753e-42
