# .PCD v0.7 - Point Cloud Data file format
VERSION 0.7
FIELDS x y z rgb
SIZE 4 4 4 4
TYPE F F F F
COUNT 1 1 1 1
WIDTH 1020
HEIGHT 1
VIEWPOINT 0 0 0 1 0 0 0
POINTS 1020
DATA ascii
-85.058998 -92.419998 -6.0700002 2.3509886e-038
-85.089996 -92.330002 -6.0700002 2.3509886e-038
-85.109001 -92.290001 -6.0900002 2.3509886e-038
-85.139999 -92.199997 -6.0900002 2.3509886e-038
-85.150002 -92.169998 -6.0999999 2.3509886e-038
-85.160004 -92.150002 -6.1399999 2.3509886e-038
-85.190002 -92.07 -6.1399999 2.3509886e-038
-85.209999 -92.019997 -6.1500001 2.3509886e-038
-85.228996 -91.959 -6.1500001 2.3509886e-038
-85.25 -91.889999 -6.1500001 2.3509886e-038
-85.269997 -91.849998 -6.1700001 2.3509886e-038
-85.289001 -91.800003 -6.1799998 2.3509886e-038
-85.289001 -91.790001 -6.21 2.3509886e-038
-85.32 -91.709 -6.1999998 2.3509886e-038
-85.330002 -91.699997 -6.23 2.3509886e-038
-85.339996 -91.660004 -6.25 2.3509886e-038
-85.349998 -91.650002 -6.2800002 2.3509886e-038
-85.359001 -91.610001 -6.2800002 2.3509886e-038
-85.359001 -91.620003 -6.3400002 2.3509886e-038
-85.379997 -91.57 -6.3400002 2.3509886e-038
-85.379997 -91.580002 -6.3899999 2.3509886e-038
-85.389999 -91.529999 -6.3899999 2.3509886e-038
-85.400002 -91.519997 -6.4299998 2.3509886e-038
-85.400002 -91.510002 -6.46 2.3509886e-038
-85.400002 -91.519997 -6.52 2.3509886e-038
-85.410004 -91.480003 -6.5300002 2.3509886e-038
-85.410004 -91.480003 -6.5700002 2.3509886e-038
-85.400002 -91.519997 -6.6399999 2.3509886e-038
-85.389999 -91.550003 -6.71 2.3509886e-038
-85.400002 -91.510002 -6.71 2.3509886e-038
-84.830002 -93.190002 -5.8400002 2.3509886e-038
-84.82 -93.199997 -5.9000001 2.3509886e-038
-84.879997 -93.059998 -5.9299998 2.3509886e-038
-84.889999 -93.029999 -5.96 2.3509886e-038
-84.889999 -93.040001 -6.0100002 2.3509886e-038
-84.949997 -92.870003 -6.0300002 2.3509886e-038
-84.959999 -92.839996 -6.0599999 2.3509886e-038
-84.970001 -92.809998 -6.1399999 2.3509886e-038
-85.049004 -92.599998 -6.0700002 2.3509886e-038
-85.080002 -92.529999 -6.0700002 2.3509886e-038
-85.099998 -92.470001 -6.0900002 2.3509886e-038
-85.119003 -92.410004 -6.0900002 2.3509886e-038
-85.160004 -92.32 -6.0900002 2.3509886e-038
-85.179001 -92.269997 -6.0999999 2.3509886e-038
-85.209999 -92.18 -6.0900002 2.3509886e-038
-85.209999 -92.160004 -6.1399999 2.3509886e-038
-85.228996 -92.120003 -6.1500001 2.3509886e-038
-85.269997 -92.010002 -6.1199999 2.3509886e-038
-85.279999 -91.980003 -6.1500001 2.3509886e-038
-85.308998 -91.900002 -6.1399999 2.3509886e-038
-85.308998 -91.910004 -6.1799998 2.3509886e-038
-85.339996 -91.830002 -6.1799998 2.3509886e-038
-85.349998 -91.809998 -6.21 2.3509886e-038
-85.369003 -91.760002 -6.21 2.3509886e-038
-85.379997 -91.720001 -6.23 2.3509886e-038
-85.379997 -91.709 -6.2600002 2.3509886e-038
-85.400002 -91.68 -6.2800002 2.3509886e-038
-85.410004 -91.660004 -6.3099999 2.3509886e-038
-85.410004 -91.650002 -6.3400002 2.3509886e-038
-85.418999 -91.610001 -6.3499999 2.3509886e-038
-85.440002 -91.580002 -6.3699999 2.3509886e-038
-85.429001 -91.589996 -6.4200001 2.3509886e-038
-85.440002 -91.57 -6.4499998 2.3509886e-038
-85.449997 -91.550003 -6.48 2.3509886e-038
-85.459999 -91.529999 -6.5 2.3509886e-038
-85.449997 -91.540001 -6.5500002 2.3509886e-038
-85.459999 -91.510002 -6.5700002 2.3509886e-038
-85.440002 -91.57 -6.6599998 2.3509886e-038
-85.449997 -91.559998 -6.6799998 2.3509886e-038
-85.418999 -91.629997 -6.8000002 2.3509886e-038
-84.910004 -93.139999 -5.96 2.3509886e-038
-84.929001 -93.080002 -5.98 2.3509886e-038
-84.940002 -93.050003 -6.0100002 2.3509886e-038
-84.970001 -92.989998 -6.0100002 2.3509886e-038
-84.988998 -92.919998 -6.04 2.3509886e-038
-85.010002 -92.870003 -6.0599999 2.3509886e-038
-85 -92.910004 -6.1199999 2.3509886e-038
-85.039001 -92.790001 -6.0999999 2.3509886e-038
-85.109001 -92.620003 -6.0700002 2.3509886e-038
-85.119003 -92.580002 -6.0900002 2.3509886e-038
-85.129997 -92.540001 -6.0999999 2.3509886e-038
-85.168999 -92.459 -6.0999999 2.3509886e-038
-85.190002 -92.389999 -6.1199999 2.3509886e-038
-85.228996 -92.300003 -6.0999999 2.3509886e-038
-85.25 -92.230003 -6.0999999 2.3509886e-038
-85.269997 -92.190002 -6.1199999 2.3509886e-038
-85.279999 -92.150002 -6.1500001 2.3509886e-038
-85.32 -92.050003 -6.1199999 2.3509886e-038
-85.308998 -92.080002 -6.1799998 2.3509886e-038
-85.349998 -91.970001 -6.1700001 2.3509886e-038
-85.379997 -91.889999 -6.1500001 2.3509886e-038
-85.379997 -91.879997 -6.1799998 2.3509886e-038
-85.400002 -91.849998 -6.21 2.3509886e-038
-85.418999 -91.790001 -6.21 2.3509886e-038
-85.418999 -91.779999 -6.25 2.3509886e-038
-85.440002 -91.720001 -6.25 2.3509886e-038
-85.440002 -91.739998 -6.3000002 2.3509886e-038
-85.449997 -91.699997 -6.3099999 2.3509886e-038
-85.459999 -91.669998 -6.3200002 2.3509886e-038
-85.470001 -91.639999 -6.3499999 2.3509886e-038
-85.488998 -91.589996 -6.3499999 2.3509886e-038
-85.478996 -91.620003 -6.4200001 2.3509886e-038
-85.478996 -91.629997 -6.46 2.3509886e-038
-85.5 -91.589996 -6.48 2.3509886e-038
-85.5 -91.589996 -6.52 2.3509886e-038
-85.510002 -91.559998 -6.5300002 2.3509886e-038
-85.510002 -91.57 -6.5900002 2.3509886e-038
-85.478996 -91.629997 -6.6799998 2.3509886e-038
-85.488998 -91.599998 -6.6999998 2.3509886e-038
-84.929001 -93.260002 -6.04 2.3509886e-038
-84.949997 -93.190002 -6.0599999 2.3509886e-038
-84.988998 -93.080002 -6.0599999 2.3509886e-038
-85.010002 -93.029999 -6.0700002 2.3509886e-038
-85.07 -92.870003 -6.04 2.3509886e-038
-85.07 -92.879997 -6.0900002 2.3509886e-038
-85.119003 -92.739998 -6.0700002 2.3509886e-038
-85.150002 -92.68 -6.0700002 2.3509886e-038
-85.160004 -92.650002 -6.0999999 2.3509886e-038
-85.179001 -92.580002 -6.1199999 2.3509886e-038
-85.209999 -92.5 -6.1199999 2.3509886e-038
-85.25 -92.389999 -6.0900002 2.3509886e-038
-85.289001 -92.300003 -6.0900002 2.3509886e-038
-85.299004 -92.260002 -6.1199999 2.3509886e-038
-85.299004 -92.25 -6.1500001 2.3509886e-038
-85.330002 -92.190002 -6.1500001 2.3509886e-038
-85.349998 -92.120003 -6.1500001 2.3509886e-038
-85.379997 -92.059998 -6.1500001 2.3509886e-038
-85.400002 -92 -6.1700001 2.3509886e-038
-85.410004 -91.980003 -6.1999998 2.3509886e-038
-85.410004 -91.970001 -6.23 2.3509886e-038
-85.440002 -91.879997 -6.21 2.3509886e-038
-85.449997 -91.860001 -6.23 2.3509886e-038
-85.470001 -91.809998 -6.25 2.3509886e-038
-85.478996 -91.779999 -6.2600002 2.3509886e-038
-85.5 -91.739998 -6.2800002 2.3509886e-038
-85.5 -91.739998 -6.3200002 2.3509886e-038
-85.510002 -91.720001 -6.3499999 2.3509886e-038
-85.510002 -91.709 -6.3800001 2.3509886e-038
-85.519997 -91.669998 -6.3899999 2.3509886e-038
-85.529999 -91.660004 -6.4299998 2.3509886e-038
-85.529999 -91.650002 -6.46 2.3509886e-038
-85.539001 -91.629997 -6.4899998 2.3509886e-038
-85.549004 -91.620003 -6.5300002 2.3509886e-038
-85.549004 -91.620003 -6.5700002 2.3509886e-038
-85.539001 -91.639999 -6.6300001 2.3509886e-038
-85.529999 -91.660004 -6.6799998 2.3509886e-038
-85.539001 -91.650002 -6.71 2.3509886e-038
-85 -93.230003 -5.96 2.3509886e-038
-85 -93.220001 -6.0100002 2.3509886e-038
-85.019997 -93.169998 -6.04 2.3509886e-038
-85.039001 -93.129997 -6.1500001 2.3509886e-038
-85.089996 -92.989998 -6.1399999 2.3509886e-038
-85.160004 -92.809998 -6.0900002 2.3509886e-038
-85.168999 -92.779999 -6.1199999 2.3509886e-038
-85.199997 -92.690002 -6.1199999 2.3509886e-038
-85.238998 -92.589996 -6.0999999 2.3509886e-038
-85.269997 -92.519997 -6.0999999 2.3509886e-038
-85.289001 -92.459 -6.1199999 2.3509886e-038
-85.308998 -92.389999 -6.1199999 2.3509886e-038
-85.330002 -92.339996 -6.1399999 2.3509886e-038
-85.359001 -92.260002 -6.1399999 2.3509886e-038
-85.379997 -92.209 -6.1500001 2.3509886e-038
-85.418999 -92.120003 -6.1399999 2.3509886e-038
-85.418999 -92.110001 -6.1799998 2.3509886e-038
-85.459999 -92.010002 -6.1500001 2.3509886e-038
-85.459999 -92 -6.1799998 2.3509886e-038
-85.470001 -91.989998 -6.23 2.3509886e-038
-85.488998 -91.93 -6.23 2.3509886e-038
-85.5 -91.900002 -6.25 2.3509886e-038
-85.510002 -91.870003 -6.2600002 2.3509886e-038
-85.529999 -91.830002 -6.2800002 2.3509886e-038
-85.539001 -91.790001 -6.3000002 2.3509886e-038
-85.549004 -91.760002 -6.3200002 2.3509886e-038
-85.549004 -91.779999 -6.3699999 2.3509886e-038
-85.549004 -91.760002 -6.3899999 2.3509886e-038
-85.57 -91.720001 -6.4099998 2.3509886e-038
-85.580002 -91.690002 -6.4299998 2.3509886e-038
-85.580002 -91.690002 -6.48 2.3509886e-038
-85.589996 -91.68 -6.5 2.3509886e-038
-85.589996 -91.650002 -6.5300002 2.3509886e-038
-85.589996 -91.660004 -6.5700002 2.3509886e-038
-85.580002 -91.709 -6.6599998 2.3509886e-038
-85.589996 -91.68 -6.6799998 2.3509886e-038
-85.57 -91.720001 -6.75 2.3509886e-038
-85.049004 -93.279999 -5.98 2.3509886e-038
-85.058998 -93.25 -6.0100002 2.3509886e-038
-85.058998 -93.25 -6.0599999 2.3509886e-038
-85.220001 -92.800003 -6.1500001 2.3509886e-038
-85.279999 -92.650002 -6.1199999 2.3509886e-038
-85.339996 -92.5 -6.0900002 2.3509886e-038
-85.339996 -92.5 -6.1199999 2.3509886e-038
-85.349998 -92.449997 -6.1500001 2.3509886e-038
-85.389999 -92.349998 -6.1199999 2.3509886e-038
-85.389999 -92.370003 -6.1799998 2.3509886e-038
-85.429001 -92.260002 -6.1500001 2.3509886e-038
-85.449997 -92.190002 -6.1700001 2.3509886e-038
-85.478996 -92.129997 -6.1700001 2.3509886e-038
-85.5 -92.07 -6.1700001 2.3509886e-038
-85.510002 -92.040001 -6.1999998 2.3509886e-038
-85.510002 -92.029999 -6.23 2.3509886e-038
-85.539001 -91.970001 -6.23 2.3509886e-038
-85.549004 -91.940002 -6.25 2.3509886e-038
-85.539001 -91.959 -6.3099999 2.3509886e-038
-85.519997 -92.029999 -6.3899999 2.3509886e-038
-85.519997 -92.010002 -6.4200001 2.3509886e-038
-85.510002 -92.029999 -6.4899998 2.3509886e-038
-85.529999 -91.989998 -6.5 2.3509886e-038
-85.558998 -91.919998 -6.4899998 2.3509886e-038
-85.609001 -91.769997 -6.4299998 2.3509886e-038
-85.619003 -91.75 -6.4499998 2.3509886e-038
-85.629997 -91.730003 -6.48 2.3509886e-038
-85.639999 -91.699997 -6.5 2.3509886e-038
-85.629997 -91.720001 -6.5599999 2.3509886e-038
-85.629997 -91.720001 -6.5999999 2.3509886e-038
-85.619003 -91.75 -6.6700001 2.3509886e-038
-85.629997 -91.739998 -6.6999998 2.3509886e-038
-85.07 -93.379997 -6.0100002 2.3509886e-038
-85.089996 -93.32 -6.0300002 2.3509886e-038
-85.119003 -93.25 -6.04 2.3509886e-038
-85.349998 -92.639999 -6.1799998 2.3509886e-038
-85.379997 -92.540001 -6.1799998 2.3509886e-038
-85.418999 -92.440002 -6.1700001 2.3509886e-038
-85.440002 -92.400002 -6.1799998 2.3418052e-038
-85.478996 -92.290001 -6.1700001 2.3509886e-038
-85.5 -92.239998 -6.1799998 2.3509886e-038
-85.510002 -92.209 -6.1999998 2.3509886e-038
-85.539001 -92.139999 -6.1999998 2.3509886e-038
-85.549004 -92.089996 -6.21 2.3509886e-038
-85.549004 -92.089996 -6.25 2.3509886e-038
-85.57 -92.040001 -6.2600002 2.3509886e-038
-85.529999 -92.150002 -6.3800001 2.3509886e-038
-85.57 -92.059998 -6.3499999 2.3509886e-038
-85.539001 -92.139999 -6.4499998 2.3509886e-038
-85.529999 -92.160004 -6.5 2.3509886e-038
-85.539001 -92.129997 -6.5300002 2.3509886e-038
-85.580002 -92.040001 -6.5 2.3509886e-038
-85.650002 -91.82 -6.3899999 2.3509886e-038
-85.660004 -91.809998 -6.4299998 2.3509886e-038
-85.668999 -91.790001 -6.46 2.3509886e-038
-85.668999 -91.769997 -6.4899998 2.3509886e-038
-85.668999 -91.779999 -6.5300002 2.3509886e-038
-85.679001 -91.75 -6.5599999 2.3509886e-038
-85.660004 -91.809998 -6.6399999 2.3509886e-038
-85.668999 -91.800003 -6.6799998 2.3509886e-038
-85.668999 -91.800003 -6.73 2.3509886e-038
-85.440002 -92.57 -6.21 2.3509886e-038
-85.470001 -92.480003 -6.21 2.3509886e-038
-85.488998 -92.440002 -6.23 2.3418052e-038
-85.519997 -92.339996 -6.21 2.3509886e-038
-85.539001 -92.300003 -6.23 2.3418052e-038
-85.57 -92.220001 -6.23 2.3418052e-038
-85.57 -92.209 -6.2600002 2.3418052e-038
-85.57 -92.199997 -6.3000002 2.3509886e-038
-85.549004 -92.279999 -6.3899999 2.3509886e-038
-85.558998 -92.25 -6.4200001 2.3509886e-038
-85.580002 -92.199997 -6.4299998 2.3509886e-038
-85.580002 -92.199997 -6.48 2.3509886e-038
-85.580002 -92.199997 -6.52 2.3509886e-038
-85.619003 -92.089996 -6.48 2.3509886e-038
-85.679001 -91.910004 -6.3899999 2.3509886e-038
-85.690002 -91.900002 -6.4299998 2.3509886e-038
-85.709999 -91.849998 -6.4299998 2.3509886e-038
-85.709999 -91.839996 -6.48 2.3509886e-038
-85.709999 -91.849998 -6.5300002 2.3509886e-038
-85.720001 -91.809998 -6.5300002 2.3509886e-038
-85.709999 -91.849998 -6.6199999 2.3509886e-038
-85.699997 -91.870003 -6.6700001 2.3509886e-038
-85.709999 -91.849998 -6.6999998 2.3509886e-038
-84.760002 -94.550003 -5.9299998 2.3418052e-038
-84.75 -94.580002 -6 2.3418052e-038
-84.459999 -95.370003 -6.3499999 2.3418052e-038
-84.379997 -95.589996 -6.4899998 2.3418052e-038
-84.369003 -95.610001 -6.5599999 2.3418052e-038
-84.449997 -95.410004 -6.5500002 2.3418052e-038
-84.440002 -95.440002 -6.6199999 2.3418052e-038
-84.470001 -95.349998 -6.6399999 2.3418052e-038
-84.440002 -95.43 -6.75 2.3418052e-038
-84.459999 -95.379997 -6.7800002 2.3418052e-038
-85.5 -92.57 -6.3400002 2.3509886e-038
-85.558998 -92.419998 -6.2800002 2.3509886e-038
-85.57 -92.389999 -6.3200002 2.3509886e-038
-85.580002 -92.349998 -6.3400002 2.3418052e-038
-85.619003 -92.239998 -6.3000002 2.3418052e-038
-85.619003 -92.239998 -6.3499999 2.3418052e-038
-85.660004 -92.150002 -6.3200002 2.3418052e-038
-85.639999 -92.209 -6.4099998 2.3509886e-038
-85.639999 -92.199997 -6.4499998 2.3509886e-038
-85.650002 -92.18 -6.48 2.3509886e-038
-85.699997 -92.029999 -6.4200001 2.3509886e-038
-85.720001 -91.989998 -6.4299998 2.3509886e-038
-85.720001 -91.989998 -6.48 2.3509886e-038
-85.738998 -91.940002 -6.4899998 2.3509886e-038
-85.728996 -91.949997 -6.5300002 2.3509886e-038
-85.738998 -91.919998 -6.5599999 2.3509886e-038
-85.738998 -91.93 -6.5999999 2.3509886e-038
-85.679001 -92.110001 -6.7800002 2.3509886e-038
-84.82 -94.550003 -5.8699999 2.3418052e-038
-84.789001 -94.639999 -6.0100002 2.3418052e-038
-84.599998 -95.160004 -6.2600002 2.3418052e-038
-84.639999 -95.059998 -6.2800002 2.3418052e-038
-84.619003 -95.099998 -6.3499999 2.3418052e-038
-84.629997 -95.080002 -6.4099998 2.3418052e-038
-84.609001 -95.129997 -6.4899998 2.3418052e-038
-84.589996 -95.199997 -6.5700002 2.3418052e-038
-84.580002 -95.209 -6.6399999 2.3418052e-038
-84.589996 -95.199997 -6.6999998 2.3418052e-038
-84.599998 -95.160004 -6.75 2.3418052e-038
-84.830002 -94.699997 -5.9200001 2.3418052e-038
-84.389999 -95.900002 -6.3899999 2.3418052e-038
-84.839996 -94.660004 -6.0100002 2.3418052e-038
-84.760002 -94.889999 -6.1500001 2.3418052e-038
-84.760002 -94.889999 -6.21 2.3418052e-038
-84.808998 -94.760002 -6.21 2.3418052e-038
-84.839996 -94.690002 -6.23 2.3418052e-038
-84.799004 -94.800003 -6.3400002 2.3418052e-038
-84.808998 -94.769997 -6.3899999 2.3418052e-038
-84.799004 -94.790001 -6.46 2.3418052e-038
-84.82 -94.739998 -6.4899998 2.3418052e-038
-84.779999 -94.860001 -6.5999999 2.3418052e-038
-84.779999 -95 -5.9499998 2.3418052e-038
-84.859001 -94.769997 -5.9299998 2.3418052e-038
-84.900002 -94.669998 -5.9499998 2.3418052e-038
-84.889999 -94.709 -6.0100002 2.3418052e-038
-84.910004 -94.660004 -6.04 2.3418052e-038
-84.910004 -94.639999 -6.0900002 2.3418052e-038
-84.910004 -94.650002 -6.1500001 2.3418052e-038
-84.949997 -94.540001 -6.1700001 2.3418052e-038
-84.959999 -94.519997 -6.21 2.3418052e-038
-84.929001 -94.599998 -6.3000002 2.3418052e-038
-84.949997 -94.559998 -6.3400002 2.3418052e-038
-84.959999 -94.519997 -6.3800001 2.3418052e-038
-84.918999 -94.639999 -6.4899998 2.3418052e-038
-84.959999 -94.519997 -6.4899998 2.3418052e-038
-84.949997 -94.550003 -6.5599999 2.3418052e-038
-84.918999 -94.650002 -6.6700001 2.3418052e-038
-84.949997 -94.709 -5.9000001 2.3418052e-038
-84.940002 -94.730003 -5.96 2.3418052e-038
-84.988998 -94.620003 -6.0300002 2.3418052e-038
-85.049004 -94.449997 -6.0100002 2.3418052e-038
-85.019997 -94.540001 -6.0999999 2.3418052e-038
-85.080002 -94.370003 -6.0900002 2.3418052e-038
-85.119003 -94.260002 -6.0999999 2.3418052e-038
-85.150002 -94.190002 -6.1199999 2.3418052e-038
-85.160004 -94.169998 -6.1700001 2.3418052e-038
-85.139999 -94.209 -6.23 2.3418052e-038
-85.119003 -94.269997 -6.3200002 2.3418052e-038
-85.139999 -94.209 -6.3499999 2.3418052e-038
-85.150002 -94.190002 -6.3899999 2.3418052e-038
-85.139999 -94.230003 -6.46 2.3418052e-038
-85.168999 -94.139999 -6.46 2.3418052e-038
-85.119003 -94.279999 -6.5999999 2.3418052e-038
-84.970001 -94.82 -5.7600002 2.3418052e-038
-84.978996 -94.790001 -5.9200001 2.3418052e-038
-84.988998 -94.790001 -5.96 2.3418052e-038
-84.988998 -94.779999 -6.0100002 2.3418052e-038
-84.988998 -94.769997 -6.0700002 2.3418052e-038
-85.109001 -94.449997 -6.0100002 2.3418052e-038
-85.190002 -94.25 -5.98 2.3418052e-038
-85.190002 -94.230003 -6.0300002 2.3418052e-038
-85.228996 -94.150002 -6.04 2.3418052e-038
-85.260002 -94.050003 -6.0599999 2.3418052e-038
-85.238998 -94.120003 -6.1399999 2.3418052e-038
-85.279999 -94 -6.1399999 2.3418052e-038
-85.299004 -93.949997 -6.1500001 2.3418052e-038
-85.299004 -93.940002 -6.21 2.3418052e-038
-85.289001 -93.970001 -6.2800002 2.3418052e-038
-85.279999 -94.019997 -6.3499999 2.3418052e-038
-85.308998 -93.93 -6.3499999 2.3418052e-038
-85.299004 -93.970001 -6.4299998 2.3418052e-038
-85.32 -93.900002 -6.4499998 2.3418052e-038
-85.308998 -93.940002 -6.52 2.3418052e-038
-85.269997 -94.050003 -6.6300001 2.3418052e-038
-85.029999 -94.839996 -5.98 2.3418052e-038
-85.049004 -94.779999 -6.0100002 2.3418052e-038
-85.07 -94.75 -6.04 2.3418052e-038
-85.058998 -94.769997 -6.1199999 2.3418052e-038
-85.139999 -94.540001 -6.0700002 2.3418052e-038
-85.330002 -94.040001 -5.9299998 2.3418052e-038
-85.339996 -94.010002 -5.98 2.3418052e-038
-85.379997 -93.889999 -5.98 2.3418052e-038
-85.369003 -93.93 -6.04 2.3418052e-038
-85.410004 -93.82 -6.04 2.3418052e-038
-85.418999 -93.779999 -6.0700002 2.3418052e-038
-85.459999 -93.68 -6.0700002 2.3418052e-038
-85.418999 -93.800003 -6.1799998 2.3418052e-038
-85.5 -93.580002 -6.1199999 2.3418052e-038
-85.449997 -93.720001 -6.25 2.3418052e-038
-85.478996 -93.639999 -6.2600002 2.3418052e-038
-85.449997 -93.720001 -6.3400002 2.3418052e-038
-85.459999 -93.709 -6.3899999 2.3418052e-038
-85.440002 -93.739998 -6.46 2.3418052e-038
-85.510002 -93.57 -6.4200001 2.3418052e-038
-85.440002 -93.760002 -6.5700002 2.3418052e-038
-85.119003 -94.779999 -5.9499998 2.3418052e-038
-85.220001 -94.5 -5.9499998 2.3418052e-038
-85.418999 -93.959 -5.8400002 2.3418052e-038
-85.429001 -93.93 -5.8899999 2.3418052e-038
-85.418999 -93.959 -6 2.3418052e-038
-85.529999 -93.68 -5.9299998 2.3418052e-038
-85.539001 -93.650002 -5.96 2.3418052e-038
-85.549004 -93.610001 -5.98 2.3418052e-038
-85.589996 -93.489998 -5.98 2.3418052e-038
-85.549004 -93.620003 -6.0900002 2.3418052e-038
-85.599998 -93.5 -6.0700002 2.3418052e-038
-85.599998 -93.470001 -6.1199999 2.3418052e-038
-85.599998 -93.480003 -6.1700001 2.3418052e-038
-85.619003 -93.440002 -6.1799998 2.3418052e-038
-85.639999 -93.370003 -6.21 2.3418052e-038
-85.629997 -93.400002 -6.2600002 2.3418052e-038
-85.619003 -93.43 -6.3200002 2.3418052e-038
-85.609001 -93.459 -6.3899999 2.3418052e-038
-85.619003 -93.43 -6.4299998 2.3418052e-038
-85.668999 -93.309998 -6.4099998 2.3418052e-038
-85.609001 -93.470001 -6.5500002 2.3418052e-038
-85.308998 -94.43 -5.5100002 2.3418052e-038
-85.299004 -94.440002 -5.5599999 2.3418052e-038
-85.459999 -94.010002 -5.6700001 2.3418052e-038
-85.478996 -93.949997 -5.6799998 2.3418052e-038
-85.478996 -93.970001 -5.8400002 2.3418052e-038
-85.488998 -93.949997 -5.8699999 2.3418052e-038
-85.519997 -93.870003 -5.9000001 2.3418052e-038
-85.470001 -94.010002 -6.0100002 2.3418052e-038
-85.510002 -93.889999 -6 2.3418052e-038
-85.609001 -93.639999 -5.9299998 2.3418052e-038
-85.668999 -93.459 -5.9000001 2.3418052e-038
-85.668999 -93.459 -5.96 2.3418052e-038
-85.668999 -93.449997 -6 2.3418052e-038
-85.760002 -93.230003 -5.9299998 2.3418052e-038
-85.75 -93.239998 -6 2.3418052e-038
-85.75 -93.25 -6.04 2.3418052e-038
-85.75 -93.25 -6.0900002 2.3418052e-038
-85.779999 -93.18 -6.0900002 2.3418052e-038
-85.799004 -93.129997 -6.1199999 2.3418052e-038
-85.808998 -93.099998 -6.1399999 2.3418052e-038
-85.789001 -93.150002 -6.21 2.3418052e-038
-85.808998 -93.099998 -6.23 2.3418052e-038
-85.799004 -93.129997 -6.3000002 2.3418052e-038
-85.808998 -93.099998 -6.3200002 2.3418052e-038
-85.799004 -93.129997 -6.3899999 2.3418052e-038
-85.779999 -93.18 -6.46 2.3418052e-038
-85.789001 -93.150002 -6.5 2.3418052e-038
-85.779999 -93.190002 -6.5700002 2.3418052e-038
-85.769997 -93.220001 -6.6300001 2.3418052e-038
-85.418999 -94.290001 -5.46 2.3418052e-038
-85.449997 -94.209 -5.48 2.3418052e-038
-85.488998 -94.099998 -5.5 2.3418052e-038
-85.529999 -93.989998 -5.5100002 2.3418052e-038
-85.549004 -93.949997 -5.54 2.3418052e-038
-85.580002 -93.870003 -5.5900002 2.3418052e-038
-85.549004 -93.959 -5.6799998 2.3418052e-038
-85.539001 -93.989998 -5.73 2.3418052e-038
-85.539001 -93.980003 -5.7800002 2.3418052e-038
-85.510002 -94.050003 -5.8499999 2.3418052e-038
-85.510002 -94.07 -5.9200001 2.3418052e-038
-85.5 -94.080002 -5.96 2.3418052e-038
-85.5 -94.089996 -6.0100002 2.3418052e-038
-85.539001 -94 -6.04 2.3418052e-038
-85.519997 -94.040001 -6.0900002 2.3418052e-038
-85.539001 -93.989998 -6.1199999 2.3418052e-038
-85.75 -93.419998 -5.9299998 2.3418052e-038
-85.779999 -93.330002 -5.9299998 2.3418052e-038
-85.830002 -93.190002 -5.9000001 2.3418052e-038
-85.849998 -93.150002 -5.9299998 2.3418052e-038
-85.879997 -93.059998 -5.9299998 2.3418052e-038
-85.869003 -93.099998 -6 2.3418052e-038
-85.900002 -93.029999 -6 2.3418052e-038
-85.918999 -92.959 -6.0100002 2.3418052e-038
-85.940002 -92.910004 -6.0300002 2.3418052e-038
-85.900002 -93.019997 -6.1199999 2.3418052e-038
-85.918999 -92.959 -6.1399999 2.3418052e-038
-85.940002 -92.900002 -6.1500001 2.3418052e-038
-85.959999 -92.849998 -6.1700001 2.3418052e-038
-85.949997 -92.889999 -6.23 2.3418052e-038
-85.959999 -92.849998 -6.2600002 2.3418052e-038
-85.859001 -93.139999 -6.46 2.3418052e-038
-85.940002 -92.93 -6.3899999 2.3418052e-038
-85.949997 -92.889999 -6.4099998 2.3418052e-038
-85.959999 -92.879997 -6.4499998 2.3418052e-038
-85.918999 -92.989998 -6.5700002 2.3418052e-038
-85.940002 -92.910004 -6.5700002 2.3418052e-038
-85.988998 -92.800003 -6.5300002 2.3418052e-038
-85.940002 -92.919998 -6.6599998 2.3418052e-038
-85.929001 -92.959 -6.7399998 2.3418052e-038
-85.988998 -92.800003 -6.6799998 2.3418052e-038
-85.959999 -92.889999 -6.7800002 2.3418052e-038
-86 -92.760002 -6.8000002 2.3418052e-038
-85.459999 -94.349998 -5.46 2.3418052e-038
-85.519997 -94.199997 -5.46 2.3418052e-038
-85.589996 -94 -5.46 2.3418052e-038
-85.609001 -93.959 -5.48 2.3418052e-038
-85.650002 -93.860001 -5.5 2.3418052e-038
-85.580002 -94.050003 -5.5999999 2.3418052e-038
-85.160004 -95.199997 -6.1199999 2.3418052e-038
-85.139999 -95.239998 -6.1799998 2.3418052e-038
-85.32 -94.760002 -6.0700002 2.3418052e-038
-85.599998 -94.010002 -5.9299998 2.3418052e-038
-85.609001 -93.980003 -5.96 2.3418052e-038
-85.580002 -94.050003 -6.04 2.3418052e-038
-85.668999 -93.809998 -5.98 2.3418052e-038
-85.918999 -93.139999 -5.75 2.3418052e-038
-85.910004 -93.160004 -5.79 2.3418052e-038
-85.918999 -93.139999 -5.8200002 2.3418052e-038
-85.940002 -93.080002 -5.8400002 2.3418052e-038
-85.970001 -92.989998 -5.8400002 2.3418052e-038
-85.988998 -92.940002 -5.9000001 2.3418052e-038
-85.988998 -92.959 -5.96 2.3418052e-038
-86.010002 -92.889999 -5.96 2.3418052e-038
-86.029999 -92.839996 -5.98 2.3418052e-038
-86.07 -92.720001 -5.96 2.3418052e-038
-86.058998 -92.769997 -6.0300002 2.3418052e-038
-86.089996 -92.669998 -6.0100002 2.3418052e-038
-86.080002 -92.699997 -6.0700002 2.3418052e-038
-86.080002 -92.709 -6.1199999 2.3418052e-038
-86.119003 -92.599998 -6.0900002 2.3418052e-038
-86.099998 -92.669998 -6.1799998 2.3418052e-038
-86.129997 -92.57 -6.1500001 2.3418052e-038
-86.099998 -92.650002 -6.2600002 2.3418052e-038
-86.119003 -92.599998 -6.2600002 2.3418052e-038
-86.109001 -92.629997 -6.3200002 2.3418052e-038
-86.109001 -92.639999 -6.3800001 2.3418052e-038
-86.139999 -92.550003 -6.3499999 2.3418052e-038
-86.109001 -92.639999 -6.46 2.3418052e-038
-86.129997 -92.589996 -6.46 2.3418052e-038
-86.099998 -92.660004 -6.5700002 2.3418052e-038
-86.129997 -92.589996 -6.5700002 2.3418052e-038
-86.119003 -92.629997 -6.6399999 2.3418052e-038
-86.109001 -92.639999 -6.6799998 2.3418052e-038
-86.109001 -92.650002 -6.7399998 2.3418052e-038
-86.109001 -92.650002 -6.7800002 2.3418052e-038
-85.599998 -94.169998 -5.46 2.3418052e-038
-85.679001 -93.93 -5.4299998 2.3418052e-038
-85.738998 -93.760002 -5.4200001 2.3418052e-038
-85.769997 -93.699997 -5.4299998 2.3418052e-038
-85.789001 -93.650002 -5.46 2.3418052e-038
-85.82 -93.559998 -5.48 2.3418052e-038
-85.238998 -95.160004 -6.0900002 2.3418052e-038
-85.949997 -93.220001 -5.5599999 2.3418052e-038
-85.940002 -93.25 -5.6199999 2.3418052e-038
-85.988998 -93.099998 -5.6399999 2.3418052e-038
-85.978996 -93.139999 -5.6999998 2.3418052e-038
-85.959999 -93.199997 -5.7600002 2.3418052e-038
-86 -93.080002 -5.75 2.3418052e-038
-86.010002 -93.059998 -5.79 2.3418052e-038
-85.970001 -93.18 -5.8699999 2.3418052e-038
-85.849998 -93.489998 -6.0700002 2.3418052e-038
-86.150002 -92.699997 -5.9000001 2.3418052e-038
-86.179001 -92.599998 -5.8699999 2.3418052e-038
-86.228996 -92.480003 -5.8499999 2.3418052e-038
-86.179001 -92.599998 -5.96 2.3418052e-038
-86.190002 -92.580002 -5.98 2.3418052e-038
-86.220001 -92.510002 -5.98 2.3418052e-038
-86.220001 -92.489998 -6.0100002 2.3418052e-038
-86.228996 -92.480003 -6.04 2.3418052e-038
-86.25 -92.43 -6.0700002 2.3418052e-038
-86.25 -92.43 -6.0999999 2.3418052e-038
-86.279999 -92.349998 -6.0900002 2.3418052e-038
-86.260002 -92.389999 -6.1500001 2.3418052e-038
-86.269997 -92.360001 -6.1799998 2.3418052e-038
-86.269997 -92.360001 -6.21 2.3418052e-038
-86.269997 -92.370003 -6.2600002 2.3418052e-038
-86.269997 -92.370003 -6.3099999 2.3418052e-038
-86.269997 -92.389999 -6.3699999 2.3418052e-038
-86.289001 -92.32 -6.3499999 2.3418052e-038
-86.279999 -92.360001 -6.4299998 2.3418052e-038
-86.279999 -92.360001 -6.48 2.3418052e-038
-86.25 -92.43 -6.5599999 2.3418052e-038
-86.238998 -92.459 -6.6399999 2.3418052e-038
-86.168999 -92.669998 -6.8200002 2.3418052e-038
-85.720001 -94.010002 -5.4000001 2.3418052e-038
-85.728996 -93.980003 -5.4299998 2.3418052e-038
-85.808998 -93.769997 -5.4000001 2.3418052e-038
-85.839996 -93.690002 -5.4299998 2.3418052e-038
-85.900002 -93.519997 -5.4000001 2.3418052e-038
-85.910004 -93.480003 -5.4299998 2.3418052e-038
-85.949997 -93.400002 -5.4499998 2.3418052e-038
-85.970001 -93.32 -5.46 2.3418052e-038
-86 -93.25 -5.48 2.3418052e-038
-86.039001 -93.139999 -5.48 2.3418052e-038
-86.029999 -93.169998 -5.5300002 2.3418052e-038
-85.929001 -93.440002 -5.6799998 2.3418052e-038
-85.738998 -93.980003 -5.9499998 2.3418052e-038
-85.760002 -93.919998 -5.96 2.3418052e-038
-85.799004 -93.809998 -5.96 2.3418052e-038
-85.900002 -93.540001 -5.9000001 2.3418052e-038
-86.019997 -93.209 -5.79 2.3418052e-038
-86.010002 -93.230003 -5.8400002 2.3418052e-038
-85.970001 -93.339996 -5.9299998 2.3418052e-038
-85.830002 -93.75 -6.2800002 2.3418052e-038
-85.889999 -93.559998 -6.23 2.3418052e-038
-86.279999 -92.5 -5.7800002 2.3418052e-038
-86.220001 -92.660004 -5.9000001 2.3418052e-038
-86.269997 -92.529999 -5.8699999 2.3418052e-038
-86.269997 -92.540001 -5.9000001 2.3418052e-038
-86.32 -92.400002 -5.8699999 2.3418052e-038
-86.330002 -92.379997 -5.9000001 2.3418052e-038
-86.32 -92.400002 -5.9499998 2.3418052e-038
-86.339996 -92.349998 -5.96 2.3418052e-038
-86.369003 -92.279999 -5.96 2.3418052e-038
-86.359001 -92.290001 -6 2.3418052e-038
-86.359001 -92.300003 -6.04 2.3418052e-038
-86.349998 -92.330002 -6.0999999 2.3418052e-038
-86.349998 -92.330002 -6.1500001 2.3418052e-038
-86.359001 -92.309998 -6.1700001 2.3418052e-038
-86.369003 -92.279999 -6.1799998 2.3418052e-038
-86.379997 -92.260002 -6.21 2.3418052e-038
-86.369003 -92.279999 -6.2600002 2.3418052e-038
-86.389999 -92.230003 -6.2800002 2.3418052e-038
-86.389999 -92.230003 -6.3200002 2.3418052e-038
-86.400002 -92.199997 -6.3400002 2.3418052e-038
-86.410004 -92.18 -6.3699999 2.3418052e-038
-86.400002 -92.199997 -6.4299998 2.3418052e-038
-86.418999 -92.160004 -6.4299998 2.3418052e-038
-86.400002 -92.220001 -6.52 2.3418052e-038
-86.349998 -92.349998 -6.6599998 2.3418052e-038
-85.609001 -94.470001 -5.4299998 2.3418052e-038
-85.728996 -94.160004 -5.4299998 2.3418052e-038
-85.82 -93.900002 -5.4000001 2.3418052e-038
-85.869003 -93.779999 -5.4000001 2.3418052e-038
-85.900002 -93.699997 -5.4200001 2.3418052e-038
-85.940002 -93.589996 -5.4299998 2.3418052e-038
-85.978996 -93.470001 -5.4299998 2.3418052e-038
-86 -93.43 -5.46 2.3418052e-038
-86.058998 -93.269997 -5.4299998 2.3418052e-038
-86.089996 -93.169998 -5.4299998 2.3418052e-038
-86.099998 -93.150002 -5.46 2.3418052e-038
-85.728996 -94.160004 -5.96 2.3418052e-038
-85.769997 -94.050003 -5.96 2.3418052e-038
-85.82 -93.919998 -5.96 2.3418052e-038
-85.830002 -93.900002 -6 2.3418052e-038
-85.849998 -93.849998 -6.0300002 2.3418052e-038
-85.859001 -93.830002 -6.0700002 2.3418052e-038
-85.879997 -93.760002 -6.0700002 2.3418052e-038
-85.900002 -93.709 -6.0900002 2.3418052e-038
-86.289001 -92.660004 -5.6799998 2.3418052e-038
-86.349998 -92.480003 -5.6399999 2.3418052e-038
-86.330002 -92.540001 -5.71 2.3418052e-038
-86.339996 -92.519997 -5.73 2.3418052e-038
-86.369003 -92.440002 -5.73 2.3418052e-038
-86.410004 -92.330002 -5.71 2.3418052e-038
-86.369003 -92.43 -5.79 2.3418052e-038
-86.369003 -92.43 -5.8400002 2.3418052e-038
-86.389999 -92.389999 -5.8499999 2.3418052e-038
-86.379997 -92.400002 -5.9000001 2.3418052e-038
-86.429001 -92.279999 -5.8699999 2.3418052e-038
-86.429001 -92.279999 -5.9000001 2.3418052e-038
-86.429001 -92.279999 -5.9499998 2.3418052e-038
-86.440002 -92.25 -5.96 2.3418052e-038
-86.429001 -92.279999 -6.0100002 2.3418052e-038
-86.410004 -92.349998 -6.0900002 2.3418052e-038
-86.418999 -92.32 -6.1199999 2.3418052e-038
-86.410004 -92.339996 -6.1799998 2.3418052e-038
-86.440002 -92.25 -6.1500001 2.3418052e-038
-86.440002 -92.269997 -6.21 2.3418052e-038
-86.418999 -92.309998 -6.2600002 2.3418052e-038
-86.449997 -92.220001 -6.2600002 2.3418052e-038
-86.449997 -92.239998 -6.3099999 2.3418052e-038
-86.459999 -92.220001 -6.3400002 2.3418052e-038
-86.478996 -92.160004 -6.3400002 2.3418052e-038
-86.478996 -92.160004 -6.3800001 2.3418052e-038
-86.478996 -92.150002 -6.4099998 2.3418052e-038
-86.478996 -92.150002 -6.4499998 2.3418052e-038
-86.478996 -92.169998 -6.5 2.3418052e-038
-86.478996 -92.160004 -6.5300002 2.3418052e-038
-85.728996 -94.339996 -5.4299998 2.3418052e-038
-85.900002 -93.870003 -5.3400002 2.3418052e-038
-85.859001 -93.959 -5.4000001 2.3418052e-038
-85.940002 -93.760002 -5.3899999 2.3418052e-038
-85.988998 -93.629997 -5.3899999 2.3418052e-038
-86.010002 -93.559998 -5.4000001 2.3418052e-038
-86.058998 -93.440002 -5.4000001 2.3418052e-038
-86.080002 -93.370003 -5.4299998 2.3418052e-038
-86.119003 -93.279999 -5.4299998 2.3418052e-038
-86.199997 -93.050003 -5.3899999 2.3418052e-038
-86.190002 -93.089996 -5.4299998 2.3418052e-038
-86.238998 -92.940002 -5.4200001 2.3418052e-038
-86.25 -92.910004 -5.4499998 2.3418052e-038
-86.289001 -92.800003 -5.4299998 2.3418052e-038
-86.369003 -92.589996 -5.46 2.3418052e-038
-86.359001 -92.620003 -5.5100002 2.3418052e-038
-86.339996 -92.68 -5.5700002 2.3418052e-038
-86.389999 -92.559998 -5.5599999 2.3418052e-038
-86.400002 -92.519997 -5.5700002 2.3418052e-038
-86.429001 -92.43 -5.5700002 2.3418052e-038
-86.389999 -92.540001 -5.6500001 2.3418052e-038
-86.418999 -92.480003 -5.6700001 2.3418052e-038
-86.359001 -92.639999 -5.79 2.3418052e-038
-86.440002 -92.410004 -5.6999998 2.3418052e-038
-86.488998 -92.279999 -5.75 2.3418052e-038
-86.488998 -92.290001 -5.8499999 2.3418052e-038
-86.488998 -92.279999 -5.8899999 2.3418052e-038
-86.488998 -92.279999 -5.9299998 2.3418052e-038
-86.488998 -92.279999 -5.96 2.3418052e-038
-86.5 -92.269997 -6 2.3418052e-038
-86.470001 -92.349998 -6.0900002 2.3418052e-038
-86.470001 -92.349998 -6.1199999 2.3418052e-038
-86.488998 -92.309998 -6.1399999 2.3418052e-038
-86.5 -92.260002 -6.1500001 2.3418052e-038
-86.510002 -92.25 -6.1799998 2.3418052e-038
-86.510002 -92.239998 -6.21 2.3418052e-038
-86.510002 -92.25 -6.2600002 2.3418052e-038
-86.510002 -92.239998 -6.3000002 2.3418052e-038
-86.519997 -92.220001 -6.3200002 2.3418052e-038
-86.529999 -92.190002 -6.3400002 2.3418052e-038
-86.539001 -92.169998 -6.3699999 2.3418052e-038
-86.549004 -92.150002 -6.3899999 2.3418052e-038
-86.539001 -92.169998 -6.4299998 2.3418052e-038
-86.549004 -92.150002 -6.46 2.3418052e-038
-86.549004 -92.160004 -6.52 2.3418052e-038
-85.808998 -94.290001 -5.4200001 2.3418052e-038
-85.978996 -93.82 -5.4000001 2.3418052e-038
-86.019997 -93.709 -5.4000001 2.3418052e-038
-86.080002 -93.550003 -5.4000001 2.3418052e-038
-86.109001 -93.459 -5.4000001 2.3418052e-038
-86.160004 -93.32 -5.4000001 2.3418052e-038
-86.228996 -93.150002 -5.3699999 2.3418052e-038
-86.238998 -93.120003 -5.4000001 2.3418052e-038
-86.299004 -92.949997 -5.3699999 2.3418052e-038
-86.308998 -92.93 -5.4000001 2.3418052e-038
-86.349998 -92.830002 -5.4000001 2.3418052e-038
-86.359001 -92.779999 -5.4200001 2.3418052e-038
-86.379997 -92.75 -5.4299998 2.3418052e-038
-86.400002 -92.68 -5.4499998 2.3418052e-038
-86.429001 -92.610001 -5.46 2.3418052e-038
-86.459999 -92.519997 -5.4499998 2.3418052e-038
-86.418999 -92.639999 -5.54 2.3418052e-038
-86.478996 -92.470001 -5.5 2.3418052e-038
-86.519997 -92.360001 -5.5599999 2.3418052e-038
-86.488998 -92.449997 -5.6399999 2.3418052e-038
-86.478996 -92.480003 -5.6799998 2.3418052e-038
-86.510002 -92.410004 -5.6799998 2.3418052e-038
-86.488998 -92.459 -5.75 2.3418052e-038
-86.470001 -92.519997 -5.8200002 2.3418052e-038
-86.5 -92.440002 -5.8099999 2.3418052e-038
-86.519997 -92.379997 -5.8200002 2.3418052e-038
-86.558998 -92.279999 -5.79 2.3418052e-038
-86.539001 -92.309998 -5.8499999 2.3418052e-038
-86.549004 -92.300003 -5.8899999 2.3418052e-038
-86.549004 -92.290001 -5.9200001 2.3418052e-038
-86.558998 -92.269997 -5.9499998 2.3418052e-038
-86.57 -92.25 -5.96 2.3418052e-038
-86.57 -92.260002 -6.0100002 2.3418052e-038
-86.57 -92.25 -6.04 2.3418052e-038
-86.57 -92.260002 -6.0900002 2.3418052e-038
-86.558998 -92.279999 -6.1399999 2.3418052e-038
-86.558998 -92.269997 -6.1700001 2.3418052e-038
-86.549004 -92.309998 -6.23 2.3418052e-038
-86.57 -92.260002 -6.25 2.3418052e-038
-86.558998 -92.279999 -6.3000002 2.3418052e-038
-86.580002 -92.220001 -6.3000002 2.3418052e-038
-86.580002 -92.239998 -6.3499999 2.3418052e-038
-86.599998 -92.18 -6.3499999 2.3418052e-038
-86.599998 -92.169998 -6.3800001 2.3418052e-038
-86.609001 -92.150002 -6.4099998 2.3418052e-038
-86.599998 -92.199997 -6.4899998 2.3418052e-038
-86.599998 -92.18 -6.52 2.3418052e-038
-86.599998 -92.18 -6.5599999 2.3418052e-038
-85.808998 -94.470001 -5.46 2.3418052e-038
-85.929001 -94.129997 -5.4000001 2.3418052e-038
-86.019997 -93.889999 -5.3699999 2.3418052e-038
-85.978996 -94 -5.4499998 2.3418052e-038
-86.080002 -93.720001 -5.4000001 2.3418052e-038
-86.150002 -93.540001 -5.3699999 2.3418052e-038
-86.220001 -93.360001 -5.3499999 2.3418052e-038
-86.220001 -93.349998 -5.4000001 2.3418052e-038
-86.269997 -93.209 -5.3899999 2.3418052e-038
-86.289001 -93.150002 -5.4000001 2.3418052e-038
-86.330002 -93.059998 -5.4000001 2.3418052e-038
-86.349998 -93.010002 -5.4299998 2.3418052e-038
-86.389999 -92.889999 -5.4200001 2.3418052e-038
-86.440002 -92.75 -5.4000001 2.3418052e-038
-86.449997 -92.739998 -5.4299998 2.3418052e-038
-86.488998 -92.610001 -5.4000001 2.3418052e-038
-86.459999 -92.709 -5.48 2.3418052e-038
-86.558998 -92.440002 -5.48 2.3418052e-038
-86.519997 -92.550003 -5.5599999 2.3418052e-038
-86.529999 -92.510002 -5.5700002 2.3418052e-038
-86.32 -93.110001 -5.9000001 2.3418052e-038
-86.228996 -93.339996 -6.0700002 2.3418052e-038
-86.209999 -93.389999 -6.1399999 2.3418052e-038
-86.209999 -93.400002 -6.1799998 2.3418052e-038
-86.209999 -93.400002 -6.23 2.3418052e-038
-86.228996 -93.339996 -6.25 2.3418052e-038
-86.57 -92.410004 -5.79 2.3418052e-038
-86.580002 -92.389999 -5.8099999 2.3418052e-038
-86.589996 -92.360001 -5.8200002 2.3418052e-038
-86.599998 -92.330002 -5.8400002 2.3418052e-038
-86.599998 -92.339996 -5.8899999 2.3418052e-038
-86.609001 -92.32 -5.9200001 2.3418052e-038
-86.609001 -92.309998 -5.9499998 2.3418052e-038
-86.619003 -92.279999 -5.96 2.3418052e-038
-86.619003 -92.290001 -6.0100002 2.3418052e-038
-86.619003 -92.290001 -6.04 2.3418052e-038
-86.619003 -92.279999 -6.0900002 2.3418052e-038
-86.629997 -92.269997 -6.0999999 2.3418052e-038
-86.629997 -92.269997 -6.1500001 2.3418052e-038
-86.629997 -92.269997 -6.1999998 2.3418052e-038
-86.639999 -92.25 -6.21 2.3418052e-038
-86.609001 -92.32 -6.3099999 2.3418052e-038
-86.619003 -92.300003 -6.3400002 2.3418052e-038
-86.629997 -92.269997 -6.3499999 2.3418052e-038
-86.660004 -92.199997 -6.3400002 2.3418052e-038
-86.660004 -92.190002 -6.3800001 2.3418052e-038
-86.660004 -92.190002 -6.4200001 2.3418052e-038
-86.660004 -92.190002 -6.46 2.3418052e-038
-86.660004 -92.209 -6.52 2.3418052e-038
-86.660004 -92.209 -6.5599999 2.3418052e-038
-86.039001 -94.019997 -5.4000001 2.3418052e-038
-86.099998 -93.849998 -5.4000001 2.3418052e-038
-86.179001 -93.620003 -5.3499999 2.3418052e-038
-86.199997 -93.580002 -5.3899999 2.3418052e-038
-86.228996 -93.489998 -5.4000001 2.3418052e-038
-86.269997 -93.400002 -5.4000001 2.3418052e-038
-86.308998 -93.290001 -5.4000001 2.3418052e-038
-86.349998 -93.169998 -5.4000001 2.3418052e-038
-86.440002 -92.940002 -5.3400002 2.3418052e-038
-86.470001 -92.849998 -5.3400002 2.3418052e-038
-86.488998 -92.800003 -5.3699999 2.3418052e-038
-86.5 -92.769997 -5.4000001 2.3418052e-038
-86.529999 -92.699997 -5.4000001 2.3418052e-038
-86.599998 -92.489998 -5.3699999 2.3418052e-038
-86.57 -92.580002 -5.46 2.3418052e-038
-86.580002 -92.550003 -5.48 2.3418052e-038
-86.549004 -92.639999 -5.5599999 2.3418052e-038
-86.299004 -93.330002 -5.9200001 2.3418052e-038
-86.289001 -93.349998 -5.98 2.3418052e-038
-86.289001 -93.370003 -6.0300002 2.3418052e-038
-86.279999 -93.370003 -6.0700002 2.3418052e-038
-86.279999 -93.379997 -6.1199999 2.3418052e-038
-86.289001 -93.349998 -6.1500001 2.3418052e-038
-86.32 -93.290001 -6.1500001 2.3418052e-038
-86.619003 -92.449997 -5.7600002 2.3418052e-038
-86.639999 -92.389999 -5.7600002 2.3418052e-038
-86.629997 -92.43 -5.8200002 2.3418052e-038
-86.629997 -92.419998 -5.8400002 2.3418052e-038
-86.660004 -92.349998 -5.8400002 2.3418052e-038
-86.660004 -92.339996 -5.8699999 2.3418052e-038
-86.660004 -92.349998 -5.9200001 2.3418052e-038
-86.668999 -92.330002 -5.9499998 2.3418052e-038
-86.668999 -92.32 -5.98 2.3418052e-038
-86.679001 -92.300003 -6.0100002 2.3418052e-038
-86.679001 -92.32 -6.04 2.3418052e-038
-86.679001 -92.300003 -6.0700002 2.3418052e-038
-86.690002 -92.290001 -6.0999999 2.3418052e-038
-86.690002 -92.290001 -6.1500001 2.3418052e-038
-86.679001 -92.300003 -6.1999998 2.3418052e-038
-86.679001 -92.300003 -6.23 2.3418052e-038
-86.679001 -92.309998 -6.2800002 2.3418052e-038
-86.679001 -92.32 -6.3200002 2.3418052e-038
-86.679001 -92.300003 -6.3499999 2.3418052e-038
-86.679001 -92.300003 -6.3899999 2.3418052e-038
-86.720001 -92.220001 -6.3800001 2.3418052e-038
-86.720001 -92.199997 -6.4099998 2.3418052e-038
-86.720001 -92.199997 -6.4499998 2.3418052e-038
-86.720001 -92.220001 -6.5 2.3418052e-038
-86.709999 -92.230003 -6.5500002 2.3418052e-038
-86.209999 -93.739998 -5.3899999 2.3418052e-038
-86.269997 -93.57 -5.3699999 2.3418052e-038
-86.32 -93.440002 -5.3699999 2.3418052e-038
-86.349998 -93.349998 -5.3699999 2.3418052e-038
-86.410004 -93.190002 -5.3499999 2.3418052e-038
-86.410004 -93.18 -5.3899999 2.3418052e-038
-86.459999 -93.050003 -5.3699999 2.3418052e-038
-86.470001 -93.019997 -5.4000001 2.3418052e-038
-86.549004 -92.800003 -5.3499999 2.3418052e-038
-86.549004 -92.809998 -5.4000001 2.3418052e-038
-86.599998 -92.68 -5.3699999 2.3418052e-038
-86.629997 -92.599998 -5.4200001 2.3418052e-038
-86.629997 -92.599998 -5.4499998 2.3418052e-038
-86.57 -92.75 -5.5599999 2.3418052e-038
-86.339996 -93.400002 -5.9000001 2.3418052e-038
-86.339996 -93.379997 -5.9299998 2.3418052e-038
-86.349998 -93.370003 -5.96 2.3418052e-038
-86.349998 -93.370003 -6.0100002 2.3418052e-038
-86.330002 -93.419998 -6.0700002 2.3418052e-038
-86.349998 -93.379997 -6.0999999 2.3418052e-038
-86.339996 -93.389999 -6.1500001 2.3418052e-038
-86.418999 -93.190002 -6.0900002 2.3418052e-038
-86.660004 -92.519997 -5.7800002 2.3418052e-038
-86.660004 -92.510002 -5.8099999 2.3418052e-038
-86.668999 -92.510002 -5.8400002 2.3418052e-038
-86.709999 -92.379997 -5.8099999 2.3418052e-038
-86.720001 -92.360001 -5.8400002 2.3418052e-038
-86.720001 -92.370003 -5.8699999 2.3418052e-038
-86.720001 -92.360001 -5.9000001 2.3418052e-038
-86.728996 -92.349998 -5.9299998 2.3418052e-038
-86.720001 -92.360001 -5.98 2.3418052e-038
-86.728996 -92.339996 -6.0100002 2.3418052e-038
-86.738998 -92.330002 -6.04 2.3418052e-038
-86.738998 -92.32 -6.0700002 2.3418052e-038
-86.728996 -92.330002 -6.1199999 2.3418052e-038
-86.738998 -92.330002 -6.1500001 2.3418052e-038
-86.738998 -92.32 -6.1799998 2.3418052e-038
-86.738998 -92.32 -6.23 2.3418052e-038
-86.738998 -92.330002 -6.2600002 2.3418052e-038
-86.728996 -92.349998 -6.3200002 2.3418052e-038
-86.738998 -92.339996 -6.3499999 2.3418052e-038
-86.738998 -92.330002 -6.3899999 2.3418052e-038
-86.769997 -92.260002 -6.3899999 2.3418052e-038
-86.769997 -92.239998 -6.4099998 2.3418052e-038
-86.779999 -92.209 -6.4299998 2.3418052e-038
-86.779999 -92.230003 -6.4899998 2.3418052e-038
-86.769997 -92.25 -6.5500002 2.3418052e-038
-86.330002 -93.580002 -5.4000001 2.3418052e-038
-86.379997 -93.449997 -5.4000001 2.3418052e-038
-86.449997 -93.25 -5.3699999 2.3418052e-038
-86.470001 -93.199997 -5.3899999 2.3418052e-038
-86.488998 -93.160004 -5.4200001 2.3418052e-038
-86.549004 -92.970001 -5.3699999 2.3418052e-038
-86.589996 -92.889999 -5.3699999 2.3418052e-038
-86.629997 -92.769997 -5.3699999 2.3418052e-038
-86.639999 -92.739998 -5.3899999 2.3418052e-038
-86.668999 -92.669998 -5.4299998 2.3418052e-038
-86.668999 -92.650002 -5.46 2.3418052e-038
-86.410004 -93.389999 -5.8400002 2.3418052e-038
-86.400002 -93.410004 -5.8899999 2.3418052e-038
-86.410004 -93.389999 -5.9200001 2.3418052e-038
-86.400002 -93.400002 -5.96 2.3418052e-038
-86.400002 -93.410004 -6.0100002 2.3418052e-038
-86.389999 -93.449997 -6.0700002 2.3418052e-038
-86.389999 -93.43 -6.1199999 2.3418052e-038
-86.389999 -93.449997 -6.1700001 2.3418052e-038
-86.400002 -93.410004 -6.1999998 2.3418052e-038
-86.459999 -93.260002 -6.1500001 2.3418052e-038
-86.738998 -92.480003 -5.7800002 2.3418052e-038
-86.760002 -92.43 -5.79 2.3418052e-038
-86.760002 -92.419998 -5.8200002 2.3418052e-038
-86.779999 -92.389999 -5.8400002 2.3418052e-038
-86.769997 -92.400002 -5.8699999 2.3418052e-038
-86.779999 -92.379997 -5.9000001 2.3418052e-038
-86.779999 -92.370003 -5.9299998 2.3418052e-038
-86.799004 -92.330002 -5.9499998 2.3418052e-038
-86.789001 -92.349998 -6 2.3418052e-038
-86.799004 -92.339996 -6.0300002 2.3418052e-038
-86.789001 -92.349998 -6.0700002 2.3418052e-038
-86.789001 -92.349998 -6.1199999 2.3418052e-038
-86.799004 -92.349998 -6.1500001 2.3418052e-038
-86.789001 -92.360001 -6.1999998 2.3418052e-038
-86.789001 -92.349998 -6.23 2.3418052e-038
-86.799004 -92.349998 -6.2600002 2.3418052e-038
-86.789001 -92.379997 -6.3200002 2.3418052e-038
-86.789001 -92.370003 -6.3699999 2.3418052e-038
-86.799004 -92.339996 -6.3899999 2.3418052e-038
-86.82 -92.269997 -6.3800001 2.3418052e-038
-86.830002 -92.260002 -6.4099998 2.3418052e-038
-86.830002 -92.269997 -6.46 2.3418052e-038
-86.830002 -92.25 -6.4899998 2.3418052e-038
-86.830002 -92.269997 -6.5300002 2.3418052e-038
-86.269997 -93.919998 -5.3899999 2.3418052e-038
-86.330002 -93.769997 -5.3699999 2.3418052e-038
-86.339996 -93.739998 -5.4000001 2.3418052e-038
-86.440002 -93.459 -5.3499999 2.3418052e-038
-86.478996 -93.349998 -5.3499999 2.3418052e-038
-86.459999 -93.410004 -5.4200001 2.3418052e-038
-86.558998 -93.129997 -5.3400002 2.3418052e-038
-86.57 -93.110001 -5.3699999 2.3418052e-038
-86.639999 -92.919998 -5.3400002 2.3418052e-038
-86.629997 -92.959 -5.4000001 2.3418052e-038
-86.660004 -92.870003 -5.4000001 2.3418052e-038
-86.699997 -92.760002 -5.3899999 2.3418052e-038
-86.728996 -92.660004 -5.4200001 2.3418052e-038
-86.738998 -92.650002 -5.4499998 2.3418052e-038
-86.459999 -93.419998 -5.8400002 2.3418052e-038
-86.459999 -93.43 -5.8699999 2.3418052e-038
-86.459999 -93.410004 -5.9200001 2.3418052e-038
-86.440002 -93.470001 -5.98 2.3418052e-038
-86.449997 -93.459 -6.0300002 2.3418052e-038
-86.440002 -93.480003 -6.0700002 2.3418052e-038
-86.440002 -93.480003 -6.1199999 2.3418052e-038
-86.440002 -93.480003 -6.1700001 2.3418052e-038
-86.429001 -93.5 -6.23 2.3418052e-038
-86.488998 -93.360001 -6.1999998 2.3418052e-038
-86.488998 -93.349998 -6.23 2.3418052e-038
-86.769997 -92.580002 -5.8400002 2.3418052e-038
-86.789001 -92.519997 -5.8499999 2.3418052e-038
-86.808998 -92.480003 -5.8699999 2.3418052e-038
-86.830002 -92.43 -5.8699999 2.3418052e-038
-86.839996 -92.400002 -5.9000001 2.3418052e-038
-86.839996 -92.410004 -5.9299998 2.3418052e-038
-86.839996 -92.410004 -5.98 2.3418052e-038
-86.849998 -92.379997 -6 2.3418052e-038
-86.839996 -92.400002 -6.04 2.3418052e-038
-86.839996 -92.400002 -6.0900002 2.3418052e-038
-86.849998 -92.379997 -6.0999999 2.3418052e-038
-86.849998 -92.389999 -6.1500001 2.3418052e-038
-86.849998 -92.370003 -6.1799998 2.3418052e-038
-86.849998 -92.379997 -6.23 2.3418052e-038
-86.849998 -92.389999 -6.2600002 2.3418052e-038
-86.839996 -92.400002 -6.3200002 2.3418052e-038
-86.849998 -92.389999 -6.3499999 2.3418052e-038
-86.849998 -92.379997 -6.3899999 2.3418052e-038
-86.879997 -92.300003 -6.3699999 2.3418052e-038
-86.889999 -92.279999 -6.3899999 2.3418052e-038
-86.879997 -92.300003 -6.46 2.3418052e-038
-86.879997 -92.300003 -6.5 2.3418052e-038
-86.889999 -92.279999 -6.5300002 2.3418052e-038
-86.049004 -94.709 -5.4299998 2.3418052e-038
-86.089996 -94.599998 -5.46 2.3418052e-038
-86.429001 -93.660004 -5.3699999 2.3418052e-038
-86.470001 -93.57 -5.3699999 2.3418052e-038
-86.5 -93.489998 -5.4000001 2.3418052e-038
-86.549004 -93.339996 -5.3699999 2.3418052e-038
-86.580002 -93.269997 -5.4000001 2.3418052e-038
-86.639999 -93.099998 -5.3699999 2.3418052e-038
-86.650002 -93.080002 -5.4000001 2.3418052e-038
-86.690002 -92.949997 -5.3699999 2.3418052e-038
-86.760002 -92.779999 -5.3400002 2.3418052e-038
-86.75 -92.790001 -5.3899999 2.3418052e-038
-86.789001 -92.709 -5.4200001 2.3418052e-038
-86.789001 -92.709 -5.46 2.3418052e-038
-86.5 -93.489998 -5.8400002 2.3418052e-038
-86.510002 -93.459 -5.8699999 2.3418052e-038
-86.5 -93.5 -5.9299998 2.3418052e-038
-86.510002 -93.480003 -5.98 2.3418052e-038
-86.510002 -93.480003 -6.0100002 2.3418052e-038
-86.488998 -93.529999 -6.0900002 2.3418052e-038
-86.5 -93.510002 -6.1199999 2.3418052e-038
-86.478996 -93.550003 -6.1799998 2.3418052e-038
-86.539001 -93.400002 -6.1500001 2.3418052e-038
-86.510002 -93.489998 -6.25 2.3418052e-038
-86.57 -93.32 -6.1999998 2.3418052e-038
