# .PCD v0.7 - Point Cloud Data file format
VERSION 0.7
FIELDS x y z rgb
SIZE 4 4 4 4
TYPE F F F F
COUNT 1 1 1 1
WIDTH 1040
HEIGHT 1
VIEWPOINT 0 0 0 1 0 0 0
POINTS 1040
DATA ascii
-42.979 -81.379997 -6.8400002 2.3418052e-038
-43.630001 -79.720001 -6.6999998 2.3418052e-038
-43.66 -79.779999 -6.71 2.3418052e-038
-43.558998 -79.879997 -6.71 2.3418052e-038
-43.488998 -79.959 -6.71 2.3418052e-038
-43.439999 -80.040001 -6.71 2.3418052e-038
-43.439999 -80.110001 -6.73 2.3418052e-038
-43.380001 -80.190002 -6.71 2.3418052e-038
-43.34 -80.269997 -6.73 2.3418052e-038
-43.389999 -80.339996 -6.75 2.3418052e-038
-43.429001 -80.400002 -6.7800002 2.3418052e-038
-43.220001 -80.5 -6.7399998 2.3418052e-038
-43.229 -80.57 -6.75 2.3418052e-038
-43.139999 -80.650002 -6.75 2.3418052e-038
-43.130001 -80.720001 -6.75 2.3418052e-038
-43.099998 -80.790001 -6.77 2.3418052e-038
-43.039001 -80.860001 -6.77 2.3418052e-038
-43.02 -80.93 -6.7800002 2.3418052e-038
-43.009998 -81 -6.7800002 2.3418052e-038
-42.929001 -81.080002 -6.7800002 2.3418052e-038
-42.91 -81.150002 -6.7800002 2.3418052e-038
-42.900002 -81.209 -6.8000002 2.3418052e-038
-42.859001 -81.279999 -6.8000002 2.3418052e-038
-43.759998 -79.650002 -6.7399998 2.3418052e-038
-43.630001 -79.75 -6.71 2.3418052e-038
-43.580002 -79.830002 -6.71 2.3418052e-038
-43.59 -79.910004 -6.7399998 2.3418052e-038
-43.509998 -79.989998 -6.7399998 2.3418052e-038
-43.509998 -80.07 -6.75 2.3418052e-038
-43.429001 -80.150002 -6.75 2.3418052e-038
-43.380001 -80.230003 -6.75 2.3418052e-038
-43.34 -80.309998 -6.75 2.3418052e-038
-43.470001 -80.360001 -6.8000002 2.3418052e-038
-43.229 -80.459 -6.75 2.3418052e-038
-43.229 -80.529999 -6.77 2.3418052e-038
-43.16 -80.610001 -6.75 2.3418052e-038
-43.118999 -80.68 -6.77 2.3418052e-038
-43.09 -80.760002 -6.77 2.3418052e-038
-43.058998 -80.830002 -6.7800002 2.3418052e-038
-43.02 -80.900002 -6.7800002 2.3418052e-038
-43.080002 -80.970001 -6.8099999 2.3418052e-038
-42.970001 -81.040001 -6.8000002 2.3418052e-038
-42.91 -81.110001 -6.8000002 2.3418052e-038
-42.900002 -81.18 -6.8099999 2.3418052e-038
-42.900002 -81.25 -6.8200002 2.3418052e-038
-43.700001 -79.620003 -6.73 2.3418052e-038
-43.639999 -79.709 -6.73 2.3418052e-038
-43.639999 -79.779999 -6.7399998 2.3418052e-038
-43.59 -79.860001 -6.75 2.3418052e-038
-43.470001 -79.959 -6.73 2.3418052e-038
-43.5 -80.029999 -6.75 2.3418052e-038
-43.429001 -80.110001 -6.75 2.3418052e-038
-43.389999 -80.190002 -6.75 2.3418052e-038
-43.359001 -80.260002 -6.75 2.3418052e-038
-43.368999 -80.330002 -6.7800002 2.3418052e-038
-43.439999 -80.400002 -6.8200002 2.3418052e-038
-43.27 -80.489998 -6.7800002 2.3418052e-038
-43.200001 -80.57 -6.7800002 2.3418052e-038
-43.139999 -80.639999 -6.7800002 2.3418052e-038
-43.109001 -80.720001 -6.7800002 2.3418052e-038
-43.058998 -80.790001 -6.7800002 2.3418052e-038
-43.039001 -80.860001 -6.8000002 2.3418052e-038
-43.039001 -80.93 -6.8099999 2.3418052e-038
-43.058998 -81 -6.8200002 2.3418052e-038
-42.929001 -81.080002 -6.8099999 2.3418052e-038
-42.900002 -81.150002 -6.8099999 2.3418052e-038
-42.970001 -81.209 -6.8499999 2.3418052e-038
-43.720001 -79.57 -6.73 2.3418052e-038
-43.738998 -79.639999 -6.75 2.3418052e-038
-43.580002 -79.739998 -6.73 2.3418052e-038
-43.599998 -79.82 -6.75 2.3418052e-038
-43.52 -79.900002 -6.75 2.3418052e-038
-43.529999 -79.980003 -6.77 2.3418052e-038
-43.488998 -80.059998 -6.77 2.3418052e-038
-43.418999 -80.139999 -6.77 2.3418052e-038
-43.359001 -80.220001 -6.77 2.3418052e-038
-43.349998 -80.290001 -6.7800002 2.3418052e-038
-43.459999 -80.349998 -6.8200002 2.3418052e-038
-43.259998 -80.449997 -6.7800002 2.3418052e-038
-43.229 -80.519997 -6.7800002 2.3418052e-038
-43.179001 -80.599998 -6.8000002 2.3418052e-038
-43.118999 -80.68 -6.7800002 2.3418052e-038
-43.080002 -80.75 -6.8000002 2.3418052e-038
-43.09 -80.82 -6.8099999 2.3418052e-038
-43 -80.889999 -6.8000002 2.3418052e-038
-43.02 -80.959 -6.8200002 2.3418052e-038
-42.950001 -81.040001 -6.8200002 2.3418052e-038
-42.918999 -81.110001 -6.8200002 2.3418052e-038
-43.808998 -79.510002 -6.75 2.3418052e-038
-43.689999 -79.610001 -6.75 2.3418052e-038
-43.650002 -79.690002 -6.75 2.3418052e-038
-43.599998 -79.779999 -6.75 2.3418052e-038
-43.580002 -79.849998 -6.77 2.3418052e-038
-43.539001 -79.940002 -6.77 2.3418052e-038
-43.5 -80.019997 -6.7800002 2.3418052e-038
-43.470001 -80.089996 -6.7800002 2.3418052e-038
-43.41 -80.18 -6.7800002 2.3418052e-038
-43.32 -80.260002 -6.7800002 2.3418052e-038
-43.349998 -80.330002 -6.8000002 2.3418052e-038
-43.450001 -80.389999 -6.8499999 2.3418052e-038
-43.220001 -80.489998 -6.8000002 2.3418052e-038
-43.220001 -80.559998 -6.8099999 2.3418052e-038
-43.168999 -80.639999 -6.8099999 2.3418052e-038
-43.080002 -80.709 -6.8099999 2.3418052e-038
-43.058998 -80.790001 -6.8099999 2.3418052e-038
-43.07 -80.860001 -6.8200002 2.3418052e-038
-43 -80.93 -6.8200002 2.3418052e-038
-43.080002 -81 -6.8699999 2.3418052e-038
-42.979 -81.07 -6.8499999 2.3418052e-038
-43.789001 -79.470001 -6.75 2.3418052e-038
-43.75 -79.559998 -6.77 2.3418052e-038
-43.689999 -79.639999 -6.77 2.3418052e-038
-43.709999 -79.720001 -6.7800002 2.3418052e-038
-43.580002 -79.809998 -6.7800002 2.3418052e-038
-43.630001 -79.879997 -6.8000002 2.3418052e-038
-43.549 -79.970001 -6.8000002 2.3418052e-038
-43.488998 -80.050003 -6.8000002 2.3418052e-038
-43.470001 -80.129997 -6.8099999 2.3418052e-038
-43.439999 -80.199997 -6.8200002 2.3418052e-038
-43.359001 -80.290001 -6.8099999 2.3418052e-038
-43.418999 -80.349998 -6.8499999 2.3418052e-038
-43.238998 -80.449997 -6.8099999 2.3418052e-038
-43.238998 -80.519997 -6.8200002 2.3418052e-038
-43.179001 -80.599998 -6.8200002 2.3418052e-038
-43.07 -80.68 -6.8099999 2.3418052e-038
-43.099998 -80.75 -6.8200002 2.3418052e-038
-43.049 -80.82 -6.8200002 2.3418052e-038
-43 -80.889999 -6.8400002 2.3418052e-038
-43.02 -80.959 -6.8499999 2.3418052e-038
-43.830002 -79.410004 -6.7800002 2.3418052e-038
-43.75 -79.5 -6.77 2.3418052e-038
-43.759998 -79.580002 -6.7800002 2.3418052e-038
-43.720001 -79.660004 -6.8000002 2.3418052e-038
-43.599998 -79.760002 -6.7800002 2.3418052e-038
-43.609001 -79.830002 -6.8000002 2.3418052e-038
-43.580002 -79.910004 -6.8099999 2.3418052e-038
-43.52 -80 -6.8099999 2.3418052e-038
-43.439999 -80.080002 -6.8099999 2.3418052e-038
-43.418999 -80.160004 -6.8200002 2.3418052e-038
-43.400002 -80.239998 -6.8200002 2.3418052e-038
-43.34 -80.32 -6.8200002 2.3418052e-038
-43.450001 -80.379997 -6.8699999 2.3418052e-038
-43.25 -80.470001 -6.8400002 2.3418052e-038
-43.238998 -80.550003 -6.8499999 2.3418052e-038
-43.179001 -80.620003 -6.8499999 2.3418052e-038
-43.09 -80.699997 -6.8400002 2.3418052e-038
-43.099998 -80.769997 -6.8499999 2.3418052e-038
-43.029999 -80.849998 -6.8499999 2.3418052e-038
-42.988998 -80.919998 -6.8499999 2.3418052e-038
-43.080002 -80.989998 -6.8899999 2.3418052e-038
-43.900002 -79.349998 -6.8000002 2.3418052e-038
-43.859001 -79.440002 -6.8099999 2.3418052e-038
-43.759998 -79.529999 -6.8000002 2.3418052e-038
-43.729 -79.610001 -6.8099999 2.3418052e-038
-43.639999 -79.709 -6.8000002 2.3418052e-038
-43.609001 -79.790001 -6.8099999 2.3418052e-038
-43.580002 -79.870003 -6.8200002 2.3418052e-038
-43.57 -79.949997 -6.8200002 2.3418052e-038
-43.52 -80.029999 -6.8400002 2.3418052e-038
-43.459999 -80.110001 -6.8400002 2.3418052e-038
-43.418999 -80.190002 -6.8400002 2.3418052e-038
-43.400002 -80.269997 -6.8499999 2.3418052e-038
-43.368999 -80.339996 -6.8499999 2.3418052e-038
-43.289001 -80.43 -6.8499999 2.3418052e-038
-43.238998 -80.5 -6.8499999 2.3418052e-038
-43.168999 -80.580002 -6.8499999 2.3418052e-038
-43.150002 -80.650002 -6.8499999 2.3418052e-038
-43.09 -80.730003 -6.8499999 2.3418052e-038
-43.080002 -80.800003 -6.8800001 2.3418052e-038
-43.02 -80.879997 -6.8800001 2.3418052e-038
-43.02 -80.949997 -6.8899999 2.3418052e-038
-43.939999 -79.300003 -6.8200002 2.3418052e-038
-43.880001 -79.389999 -6.8200002 2.3418052e-038
-43.779999 -79.480003 -6.8099999 2.3418052e-038
-43.738998 -79.57 -6.8200002 2.3418052e-038
-43.738998 -79.650002 -6.8200002 2.3418052e-038
-43.618999 -79.739998 -6.8200002 2.3418052e-038
-43.630001 -79.82 -6.8400002 2.3418052e-038
-43.558998 -79.900002 -6.8400002 2.3418052e-038
-43.539001 -79.980003 -6.8499999 2.3418052e-038
-43.470001 -80.07 -6.8499999 2.3418052e-038
-43.450001 -80.139999 -6.8499999 2.3418052e-038
-43.400002 -80.220001 -6.8499999 2.3418052e-038
-43.330002 -80.309998 -6.8499999 2.3418052e-038
-43.259998 -80.459 -6.8699999 2.3418052e-038
-43.238998 -80.540001 -6.8800001 2.3418052e-038
-43.130001 -80.620003 -6.8699999 2.3418052e-038
-43.109001 -80.690002 -6.8800001 2.3418052e-038
-43.099998 -80.760002 -6.8899999 2.3418052e-038
-43.058998 -80.839996 -6.8899999 2.3418052e-038
-42.988998 -80.910004 -6.8899999 2.3418052e-038
-43.889999 -79.260002 -6.8099999 2.3418052e-038
-43.880001 -79.339996 -6.8200002 2.3418052e-038
-43.808998 -79.440002 -6.8200002 2.3418052e-038
-43.808998 -79.510002 -6.8400002 2.3418052e-038
-43.759998 -79.599998 -6.8499999 2.3418052e-038
-43.709999 -79.690002 -6.8499999 2.3418052e-038
-43.700001 -79.769997 -6.8699999 2.3418052e-038
-43.609001 -79.849998 -6.8499999 2.3418052e-038
-43.57 -79.940002 -6.8699999 2.3418052e-038
-43.52 -80.019997 -6.8699999 2.3418052e-038
-43.5 -80.099998 -6.8800001 2.3418052e-038
-43.238998 -80.5 -6.8899999 2.3418052e-038
-43.179001 -80.580002 -6.8899999 2.3418052e-038
-43.130001 -80.650002 -6.8899999 2.3418052e-038
-43.939999 -79.209 -6.8400002 2.3418052e-038
-43.900002 -79.300003 -6.8400002 2.3418052e-038
-43.849998 -79.389999 -6.8499999 2.3418052e-038
-43.82 -79.470001 -6.8499999 2.3418052e-038
-43.779999 -79.559998 -6.8699999 2.3418052e-038
-43.738998 -79.639999 -6.8699999 2.3418052e-038
-43.929001 -81.660004 -5.5700002 2.3418052e-038
-43.799 -81.629997 -5.5700002 2.3418052e-038
-43.808998 -81.669998 -5.5700002 2.3418052e-038
-43.929001 -81.690002 -5.6199999 2.3418052e-038
-43.929001 -81.739998 -5.6199999 2.3418052e-038
-43.759998 -81.580002 -5.5900002 2.3418052e-038
-43.779999 -81.620003 -5.5900002 2.3418052e-038
-43.84 -81.660004 -5.6199999 2.3418052e-038
-43.789001 -81.709 -5.6199999 2.3418052e-038
-43.950001 -81.730003 -5.6700001 2.3418052e-038
-43.929001 -81.769997 -5.6799998 2.3418052e-038
-43.668999 -81.550003 -5.5900002 2.3418052e-038
-43.720001 -81.580002 -5.5999999 2.3418052e-038
-43.729 -81.620003 -5.6199999 2.3418052e-038
-43.779999 -81.660004 -5.6500001 2.3418052e-038
-43.808998 -81.699997 -5.6500001 2.3418052e-038
-43.808998 -81.739998 -5.6700001 2.3418052e-038
-43.900002 -81.769997 -5.71 2.3418052e-038
-43.929001 -81.809998 -5.71 2.3418052e-038
-43.580002 -81.510002 -5.5900002 2.3418052e-038
-43.630001 -81.550003 -5.6199999 2.3418052e-038
-43.630001 -81.589996 -5.6199999 2.3418052e-038
-43.639999 -81.629997 -5.6399999 2.3418052e-038
-43.82 -81.639999 -5.6799998 2.3418052e-038
-43.77 -81.699997 -5.6799998 2.3418052e-038
-43.900002 -81.720001 -5.73 2.3418052e-038
-43.849998 -81.779999 -5.73 2.3418052e-038
-43.880001 -81.82 -5.75 2.3418052e-038
-43.900002 -81.860001 -5.7600002 2.3418052e-038
-43.5 -81.470001 -5.5900002 2.3418052e-038
-43.459999 -81.529999 -5.5900002 2.3418052e-038
-43.558998 -81.550003 -5.6399999 2.3418052e-038
-43.549 -81.599998 -5.6399999 2.3418052e-038
-43.558998 -81.639999 -5.6500001 2.3418052e-038
-43.630001 -81.669998 -5.6799998 2.3418052e-038
-43.679001 -81.709 -5.6999998 2.3418052e-038
-43.77 -81.739998 -5.73 2.3418052e-038
-43.66 -81.800003 -5.71 2.3418052e-038
-43.779999 -81.830002 -5.7600002 2.3418052e-038
-43.849998 -81.860001 -5.79 2.3418052e-038
-43.900002 -81.900002 -5.8099999 2.3418052e-038
-43.429001 -81.440002 -5.5999999 2.3418052e-038
-43.52 -81.459 -5.6399999 2.3418052e-038
-43.450001 -81.519997 -5.6199999 2.3418052e-038
-43.52 -81.550003 -5.6500001 2.3418052e-038
-43.549 -81.589996 -5.6799998 2.3418052e-038
-43.509998 -81.639999 -5.6700001 2.3418052e-038
-43.618999 -81.669998 -5.71 2.3418052e-038
-43.700001 -81.699997 -5.73 2.3418052e-038
-43.668999 -81.75 -5.75 2.3418052e-038
-43.799 -81.779999 -5.79 2.3418052e-038
-43.84 -81.82 -5.8099999 2.3418052e-038
-43.84 -81.870003 -5.8200002 2.3418052e-038
-43.868999 -81.910004 -5.8400002 2.3418052e-038
-43.368999 -81.400002 -5.6199999 2.3418052e-038
-43.418999 -81.43 -5.6399999 2.3418052e-038
-43.5 -81.459 -5.6700001 2.3418052e-038
-43.450001 -81.519997 -5.6500001 2.3418052e-038
-43.558998 -81.540001 -5.6999998 2.3418052e-038
-43.5 -81.599998 -5.6799998 2.3418052e-038
-43.479 -81.639999 -5.6999998 2.3418052e-038
-43.618999 -81.669998 -5.75 2.3418052e-038
-43.630001 -81.709 -5.7600002 2.3418052e-038
-43.599998 -81.760002 -5.7600002 2.3418052e-038
-43.650002 -81.800003 -5.7800002 2.3418052e-038
-43.650002 -81.849998 -5.79 2.3418052e-038
-43.759998 -81.879997 -5.8200002 2.3418052e-038
-43.830002 -81.919998 -5.8499999 2.3418052e-038
-43.939999 -81.949997 -5.9000001 2.3418052e-038
-43.220001 -81.379997 -5.5900002 2.3418052e-038
-43.259998 -81.410004 -5.5999999 2.3418052e-038
-43.380001 -81.43 -5.6500001 2.3418052e-038
-43.400002 -81.470001 -5.6700001 2.3418052e-038
-43.308998 -81.529999 -5.6500001 2.3418052e-038
-43.479 -81.550003 -5.71 2.3418052e-038
-43.439999 -81.599998 -5.71 2.3418052e-038
-43.470001 -81.639999 -5.71 2.3418052e-038
-43.609001 -81.660004 -5.7600002 2.3418052e-038
-43.52 -81.720001 -5.7600002 2.3418052e-038
-43.630001 -81.75 -5.79 2.3418052e-038
-43.689999 -81.790001 -5.8200002 2.3418052e-038
-43.77 -81.830002 -5.8400002 2.3418052e-038
-43.759998 -81.879997 -5.8499999 2.3418052e-038
-43.808998 -81.919998 -5.8699999 2.3418052e-038
-43.830002 -81.959 -5.9000001 2.3418052e-038
-43.16 -81.330002 -5.5900002 2.3418052e-038
-43.41 -81.330002 -5.6700001 2.3418052e-038
-43.330002 -81.389999 -5.6500001 2.3418052e-038
-43.359001 -81.43 -5.6799998 2.3418052e-038
-43.330002 -81.480003 -5.6799998 2.3418052e-038
-43.308998 -81.519997 -5.6799998 2.3418052e-038
-43.400002 -81.559998 -5.71 2.3418052e-038
-43.5 -81.580002 -5.75 2.3418052e-038
-43.400002 -81.639999 -5.73 2.3418052e-038
-43.41 -81.690002 -5.73 2.3418052e-038
-43.549 -81.709 -5.79 2.3418052e-038
-43.558998 -81.760002 -5.79 2.3418052e-038
-43.529999 -81.809998 -5.8099999 2.3418052e-038
-43.679001 -81.839996 -5.8499999 2.3418052e-038
-43.689999 -81.879997 -5.8699999 2.3418052e-038
-43.779999 -81.919998 -5.9000001 2.3418052e-038
-43.849998 -81.959 -5.9299998 2.3418052e-038
-43.109001 -81.290001 -5.5900002 2.3418052e-038
-43.308998 -81.290001 -5.6700001 2.3418052e-038
-43.150002 -81.370003 -5.6199999 2.3418052e-038
-43.229 -81.389999 -5.6500001 2.3418052e-038
-43.220001 -81.440002 -5.6700001 2.3418052e-038
-43.209999 -81.489998 -5.6700001 2.3418052e-038
-43.400002 -81.5 -5.73 2.3418052e-038
-43.32 -81.559998 -5.71 2.3418052e-038
-43.439999 -81.589996 -5.7600002 2.3418052e-038
-43.439999 -81.629997 -5.7600002 2.3418052e-038
-43.470001 -81.669998 -5.79 2.3418052e-038
-43.470001 -81.720001 -5.79 2.3418052e-038
-43.52 -81.760002 -5.8200002 2.3418052e-038
-43.558998 -81.800003 -5.8400002 2.3418052e-038
-43.630001 -81.839996 -5.8699999 2.3418052e-038
-43.66 -81.879997 -5.8899999 2.3418052e-038
-43.720001 -81.919998 -5.9000001 2.3418052e-038
-43.889999 -81.959 -5.96 2.3418052e-038
-43.299 -81.190002 -5.6700001 2.3418052e-038
-43.139999 -81.269997 -5.6399999 2.3418052e-038
-43.109001 -81.32 -5.6399999 2.3418052e-038
-43.289001 -81.330002 -5.6799998 2.3418052e-038
-43.168999 -81.400002 -5.6700001 2.3418052e-038
-43.299 -81.419998 -5.71 2.3418052e-038
-43.189999 -81.489998 -5.6799998 2.3418052e-038
-43.229 -81.519997 -5.71 2.3418052e-038
-43.330002 -81.550003 -5.75 2.3418052e-038
-43.289001 -81.599998 -5.75 2.3418052e-038
-43.41 -81.629997 -5.79 2.3418052e-038
-43.400002 -81.68 -5.79 2.3418052e-038
-43.5 -81.709 -5.8200002 2.3418052e-038
-43.5 -81.760002 -5.8400002 2.3418052e-038
-43.479 -81.809998 -5.8400002 2.3418052e-038
-43.618999 -81.839996 -5.9000001 2.3418052e-038
-43.618999 -81.889999 -5.9000001 2.3418052e-038
-43.720001 -81.93 -5.9299998 2.3418052e-038
-43.080002 -81.190002 -5.6199999 2.3418052e-038
-43.118999 -81.220001 -5.6500001 2.3418052e-038
-43.25 -81.239998 -5.6799998 2.3418052e-038
-43.080002 -81.32 -5.6500001 2.3418052e-038
-43.058998 -81.370003 -5.6500001 2.3418052e-038
-43.130001 -81.400002 -5.6799998 2.3418052e-038
-43.238998 -81.43 -5.71 2.3418052e-038
-43.200001 -81.480003 -5.71 2.3418052e-038
-43.220001 -81.519997 -5.73 2.3418052e-038
-43.27 -81.559998 -5.7600002 2.3418052e-038
-43.41 -81.580002 -5.8099999 2.3418052e-038
-43.299 -81.639999 -5.7800002 2.3418052e-038
-43.418999 -81.669998 -5.8200002 2.3418052e-038
-43.41 -81.720001 -5.8400002 2.3418052e-038
-43.509998 -81.760002 -5.8699999 2.3418052e-038
-43.479 -81.809998 -5.8699999 2.3418052e-038
-43.57 -81.849998 -5.9000001 2.3418052e-038
-43.618999 -81.889999 -5.9299998 2.3418052e-038
-43.668999 -81.93 -5.96 2.3418052e-038
-44.02 -81.949997 -6.0700002 2.3418052e-038
-42.868999 -81.169998 -5.5900002 2.3418052e-038
-43.039001 -81.18 -5.6399999 2.3418052e-038
-43.080002 -81.209 -5.6500001 2.3418052e-038
-42.970001 -81.279999 -5.6399999 2.3418052e-038
-43.139999 -81.290001 -5.6999998 2.3418052e-038
-43.07 -81.349998 -5.6799998 2.3418052e-038
-43.029999 -81.400002 -5.6799998 2.3418052e-038
-43.02 -81.449997 -5.6799998 2.3418052e-038
-43.118999 -81.480003 -5.73 2.3418052e-038
-43.259998 -81.5 -5.7800002 2.3418052e-038
-43.189999 -81.559998 -5.7600002 2.3418052e-038
-43.27 -81.589996 -5.79 2.3418052e-038
-43.330002 -81.629997 -5.8200002 2.3418052e-038
-43.289001 -81.68 -5.8200002 2.3418052e-038
-43.330002 -81.720001 -5.8400002 2.3418052e-038
-43.429001 -81.760002 -5.8699999 2.3418052e-038
-43.459999 -81.800003 -5.9000001 2.3418052e-038
-43.549 -81.839996 -5.9299998 2.3418052e-038
-43.618999 -81.889999 -5.96 2.3418052e-038
-43.679001 -81.93 -5.98 2.3418052e-038
-43.82 -81.970001 -6.04 2.3418052e-038
-42.959999 -81.099998 -5.6199999 2.3418052e-038
-43.080002 -81.120003 -5.6700001 2.3418052e-038
-42.889999 -81.199997 -5.6199999 2.3418052e-038
-43.02 -81.220001 -5.6700001 2.3418052e-038
-42.988998 -81.269997 -5.6700001 2.3418052e-038
-43.039001 -81.309998 -5.6999998 2.3418052e-038
-43.058998 -81.349998 -5.71 2.3418052e-038
-43.049 -81.400002 -5.71 2.3418052e-038
-43.049 -81.440002 -5.73 2.3418052e-038
-43.168999 -81.470001 -5.7600002 2.3418052e-038
-43.07 -81.529999 -5.75 2.3418052e-038
-43.308998 -81.540001 -5.8200002 2.3418052e-038
-43.179001 -81.599998 -5.79 2.3418052e-038
-43.25 -81.639999 -5.8200002 2.3418052e-038
-43.308998 -81.68 -5.8400002 2.3418052e-038
-43.308998 -81.730003 -5.8499999 2.3418052e-038
-43.380001 -81.769997 -5.8899999 2.3418052e-038
-43.439999 -81.809998 -5.9200001 2.3418052e-038
-43.509998 -81.849998 -5.9499998 2.3418052e-038
-43.59 -81.889999 -5.98 2.3418052e-038
-43.679001 -81.93 -6.0100002 2.3418052e-038
-43.84 -81.970001 -6.0700002 2.3418052e-038
-42.789001 -81.080002 -5.5900002 2.3418052e-038
-42.868999 -81.110001 -5.6199999 2.3418052e-038
-42.988998 -81.129997 -5.6799998 2.3418052e-038
-42.939999 -81.190002 -5.6700001 2.3418052e-038
-42.939999 -81.230003 -5.6799998 2.3418052e-038
-42.900002 -81.279999 -5.6799998 2.3418052e-038
-43.09 -81.290001 -5.73 2.3418052e-038
-43.080002 -81.339996 -5.73 2.3418052e-038
-43.189999 -81.370003 -5.7800002 2.3418052e-038
-43.139999 -81.43 -5.7800002 2.3418052e-038
-43.139999 -81.470001 -5.79 2.3418052e-038
-43.279999 -81.5 -5.8400002 2.3418052e-038
-43.150002 -81.559998 -5.8099999 2.3418052e-038
-43.229 -81.599998 -5.8400002 2.3418052e-038
-43.259998 -81.639999 -5.8499999 2.3418052e-038
-43.289001 -81.68 -5.8699999 2.3418052e-038
-43.32 -81.730003 -5.9000001 2.3418052e-038
-43.349998 -81.769997 -5.9000001 2.3418052e-038
-43.429001 -81.809998 -5.9499998 2.3418052e-038
-43.539001 -81.849998 -5.98 2.3418052e-038
-43.580002 -81.900002 -6.0100002 2.3418052e-038
-43.668999 -81.940002 -6.04 2.3418052e-038
-43.868999 -81.980003 -6.0999999 2.3418052e-038
-42.849998 -81.010002 -5.6399999 2.3418052e-038
-42.77 -81.080002 -5.6199999 2.3418052e-038
-42.988998 -81.080002 -5.6799998 2.3418052e-038
-42.900002 -81.139999 -5.6799998 2.3418052e-038
-42.918999 -81.18 -5.6799998 2.3418052e-038
-42.91 -81.230003 -5.6999998 2.3418052e-038
-43 -81.260002 -5.73 2.3418052e-038
-43.009998 -81.300003 -5.75 2.3418052e-038
-42.970001 -81.349998 -5.73 2.3418052e-038
-42.979 -81.400002 -5.75 2.3418052e-038
-43.049 -81.43 -5.7800002 2.3418052e-038
-43.07 -81.480003 -5.79 2.3418052e-038
-43.049 -81.519997 -5.79 2.3418052e-038
-43.109001 -81.559998 -5.8200002 2.3418052e-038
-43.16 -81.599998 -5.8400002 2.3418052e-038
-43.229 -81.639999 -5.8699999 2.3418052e-038
-43.16 -81.699997 -5.8699999 2.3418052e-038
-43.308998 -81.730003 -5.9200001 2.3418052e-038
-43.349998 -81.769997 -5.9299998 2.3418052e-038
-43.429001 -81.809998 -5.98 2.3418052e-038
-43.479 -81.860001 -6 2.3418052e-038
-43.580002 -81.900002 -6.04 2.3418052e-038
-43.668999 -81.949997 -6.0700002 2.3418052e-038
-43.868999 -81.989998 -6.1500001 2.3418052e-038
-42.84 -80.970001 -5.6500001 2.3418052e-038
-42.84 -81.010002 -5.6500001 2.3418052e-038
-42.84 -81.059998 -5.6700001 2.3418052e-038
-42.900002 -81.089996 -5.6999998 2.3418052e-038
-42.988998 -81.120003 -5.73 2.3418052e-038
-42.830002 -81.199997 -5.6999998 2.3418052e-038
-42.868999 -81.230003 -5.71 2.3418052e-038
-42.918999 -81.269997 -5.73 2.3418052e-038
-42.979 -81.309998 -5.7600002 2.3418052e-038
-42.959999 -81.349998 -5.7600002 2.3418052e-038
-42.970001 -81.400002 -5.7800002 2.3418052e-038
-43.099998 -81.43 -5.8200002 2.3418052e-038
-43 -81.489998 -5.8099999 2.3418052e-038
-43.080002 -81.519997 -5.8400002 2.3418052e-038
-43.118999 -81.559998 -5.8499999 2.3418052e-038
-43.099998 -81.610001 -5.8499999 2.3418052e-038
-43.118999 -81.660004 -5.8699999 2.3418052e-038
-43.189999 -81.699997 -5.9000001 2.3418052e-038
-43.279999 -81.739998 -5.9299998 2.3418052e-038
-43.359001 -81.779999 -5.98 2.3418052e-038
-43.418999 -81.82 -6 2.3418052e-038
-43.5 -81.870003 -6.04 2.3418052e-038
-43.609001 -81.910004 -6.0700002 2.3418052e-038
-43.709999 -81.949997 -6.1199999 2.3418052e-038
-43.859001 -82 -6.1799998 2.3418052e-038
-42.84 -80.919998 -5.6700001 2.3418052e-038
-42.799 -80.970001 -5.6700001 2.3418052e-038
-42.84 -81.010002 -5.6799998 2.3418052e-038
-42.82 -81.059998 -5.6799998 2.3418052e-038
-42.830002 -81.099998 -5.6999998 2.3418052e-038
-42.939999 -81.129997 -5.73 2.3418052e-038
-42.929001 -81.18 -5.75 2.3418052e-038
-42.929001 -81.220001 -5.7600002 2.3418052e-038
-42.808998 -81.290001 -5.73 2.3418052e-038
-42.918999 -81.309998 -5.7800002 2.3418052e-038
-42.970001 -81.349998 -5.79 2.3418052e-038
-43.029999 -81.389999 -5.8200002 2.3418052e-038
-42.939999 -81.449997 -5.8099999 2.3418052e-038
-42.950001 -81.489998 -5.8200002 2.3418052e-038
-43.130001 -81.519997 -5.8699999 2.3418052e-038
-43.039001 -81.580002 -5.8499999 2.3418052e-038
-43.109001 -81.620003 -5.8899999 2.3418052e-038
-43.150002 -81.660004 -5.9000001 2.3418052e-038
-43.238998 -81.699997 -5.9499998 2.3418052e-038
-43.308998 -81.739998 -5.98 2.3418052e-038
-43.368999 -81.790001 -6.0100002 2.3418052e-038
-43.400002 -81.830002 -6.0300002 2.3418052e-038
-43.459999 -81.879997 -6.0599999 2.3418052e-038
-43.618999 -81.919998 -6.0999999 2.3418052e-038
-43.789001 -81.959 -6.1700001 2.3418052e-038
-42.849998 -80.860001 -5.6799998 2.3418052e-038
-42.82 -80.910004 -5.6799998 2.3418052e-038
-42.799 -80.959 -5.6799998 2.3418052e-038
-42.789001 -81.010002 -5.6999998 2.3418052e-038
-42.789001 -81.059998 -5.71 2.3418052e-038
-42.779999 -81.110001 -5.71 2.3418052e-038
-42.849998 -81.139999 -5.73 2.3418052e-038
-42.959999 -81.169998 -5.7800002 2.3418052e-038
-42.91 -81.220001 -5.7800002 2.3418052e-038
-43.009998 -81.25 -5.8200002 2.3418052e-038
-42.918999 -81.309998 -5.79 2.3418052e-038
-42.939999 -81.360001 -5.8200002 2.3418052e-038
-43.058998 -81.389999 -5.8499999 2.3418052e-038
-43.02 -81.440002 -5.8499999 2.3418052e-038
-42.970001 -81.489998 -5.8400002 2.3418052e-038
-42.988998 -81.540001 -5.8699999 2.3418052e-038
-43.080002 -81.57 -5.9000001 2.3418052e-038
-43.139999 -81.620003 -5.9299998 2.3418052e-038
-43.179001 -81.660004 -5.9499998 2.3418052e-038
-43.200001 -81.709 -5.96 2.3418052e-038
-43.279999 -81.75 -6 2.3418052e-038
-43.389999 -81.790001 -6.04 2.3418052e-038
-43.400002 -81.839996 -6.04 2.3418052e-038
-43.52 -81.879997 -6.0900002 2.3418052e-038
-43.66 -81.93 -6.1500001 2.3418052e-038
-43.82 -81.970001 -6.21 2.3418052e-038
-42.859001 -80.809998 -5.71 2.3418052e-038
-42.84 -80.860001 -5.71 2.3418052e-038
-42.82 -80.910004 -5.71 2.3418052e-038
-42.77 -80.970001 -5.71 2.3418052e-038
-42.77 -81.010002 -5.71 2.3418052e-038
-42.808998 -81.050003 -5.73 2.3418052e-038
-42.789001 -81.099998 -5.73 2.3418052e-038
-42.84 -81.139999 -5.7600002 2.3418052e-038
-42.84 -81.190002 -5.7600002 2.3418052e-038
-42.830002 -81.230003 -5.7800002 2.3418052e-038
-42.808998 -81.279999 -5.79 2.3418052e-038
-42.849998 -81.32 -5.8099999 2.3418052e-038
-42.84 -81.370003 -5.8099999 2.3418052e-038
-42.929001 -81.410004 -5.8400002 2.3418052e-038
-42.950001 -81.449997 -5.8499999 2.3418052e-038
-42.880001 -81.510002 -5.8400002 2.3418052e-038
-43.009998 -81.540001 -5.9000001 2.3418052e-038
-43.080002 -81.580002 -5.9299998 2.3418052e-038
-43.109001 -81.629997 -5.9499998 2.3418052e-038
-43.150002 -81.669998 -5.96 2.3418052e-038
-43.209999 -81.709 -6 2.3418052e-038
-43.308998 -81.760002 -6.04 2.3418052e-038
-43.289001 -81.809998 -6.04 2.3418052e-038
-43.52 -81.849998 -6.1199999 2.3418052e-038
-43.599998 -81.889999 -6.1500001 2.3418052e-038
-43.689999 -81.940002 -6.1799998 2.3418052e-038
-43.979 -81.980003 -6.2800002 2.3418052e-038
-42.959999 -80.739998 -5.75 2.3418052e-038
-42.880001 -80.809998 -5.73 2.3418052e-038
-42.82 -80.860001 -5.73 2.3418052e-038
-42.808998 -80.910004 -5.73 2.3418052e-038
-42.75 -80.970001 -5.73 2.3418052e-038
-42.75 -81.019997 -5.73 2.3418052e-038
-42.759998 -81.059998 -5.75 2.3418052e-038
-42.759998 -81.110001 -5.7600002 2.3418052e-038
-42.779999 -81.150002 -5.7600002 2.3418052e-038
-42.82 -81.190002 -5.79 2.3418052e-038
-42.789001 -81.239998 -5.79 2.3418052e-038
-42.849998 -81.279999 -5.8200002 2.3418052e-038
-42.889999 -81.32 -5.8400002 2.3418052e-038
-42.91 -81.370003 -5.8499999 2.3418052e-038
-42.91 -81.410004 -5.8699999 2.3418052e-038
-42.880001 -81.459 -5.8699999 2.3418052e-038
-42.970001 -81.5 -5.9000001 2.3418052e-038
-43.009998 -81.550003 -5.9299998 2.3418052e-038
-43.058998 -81.589996 -5.9499998 2.3418052e-038
-43.099998 -81.629997 -5.96 2.3418052e-038
-43.209999 -81.68 -6.0100002 2.3418052e-038
-43.259998 -81.720001 -6.04 2.3418052e-038
-43.299 -81.769997 -6.0599999 2.3418052e-038
-43.439999 -81.809998 -6.0999999 2.3418052e-038
-43.509998 -81.860001 -6.1399999 2.3418052e-038
-43.599998 -81.910004 -6.1799998 2.3418052e-038
-43.738998 -81.949997 -6.23 2.3418052e-038
-43.179001 -80.639999 -5.8200002 2.3418052e-038
-42.849998 -80.809998 -5.75 2.3418052e-038
-42.799 -80.860001 -5.75 2.3418052e-038
-42.799 -80.910004 -5.7600002 2.3418052e-038
-42.738998 -80.970001 -5.75 2.3418052e-038
-42.738998 -81.010002 -5.7600002 2.3418052e-038
-42.720001 -81.059998 -5.7600002 2.3418052e-038
-42.729 -81.110001 -5.7800002 2.3418052e-038
-42.729 -81.160004 -5.79 2.3418052e-038
-42.75 -81.199997 -5.79 2.3418052e-038
-42.82 -81.239998 -5.8200002 2.3418052e-038
-42.738998 -81.290001 -5.8200002 2.3418052e-038
-42.859001 -81.32 -5.8499999 2.3418052e-038
-42.849998 -81.370003 -5.8699999 2.3418052e-038
-42.880001 -81.419998 -5.8899999 2.3418052e-038
-42.929001 -81.459 -5.9000001 2.3418052e-038
-42.970001 -81.5 -5.9299998 2.3418052e-038
-42.979 -81.550003 -5.9299998 2.3418052e-038
-43.080002 -81.589996 -5.98 2.3418052e-038
-43.130001 -81.639999 -6.0100002 2.3418052e-038
-43.200001 -81.68 -6.04 2.3418052e-038
-43.32 -81.720001 -6.0700002 2.3418052e-038
-43.359001 -81.769997 -6.0999999 2.3418052e-038
-43.5 -81.82 -6.1500001 2.3418052e-038
-43.549 -81.870003 -6.1799998 2.3418052e-038
-43.59 -81.919998 -6.21 2.3418052e-038
-43.759998 -81.970001 -6.2600002 2.3418052e-038
-43.91 -82.019997 -6.3200002 2.3418052e-038
-43.16 -80.589996 -5.8200002 2.3418052e-038
-43.058998 -80.660004 -5.8099999 2.3418052e-038
-43.02 -80.720001 -5.8099999 2.3418052e-038
-42.789001 -80.809998 -5.7600002 2.3418052e-038
-42.789001 -80.860001 -5.7600002 2.3418052e-038
-42.759998 -80.910004 -5.7600002 2.3418052e-038
-42.729 -80.970001 -5.7600002 2.3418052e-038
-42.709999 -81.019997 -5.7800002 2.3418052e-038
-42.709999 -81.059998 -5.79 2.3418052e-038
-42.729 -81.110001 -5.79 2.3418052e-038
-42.75 -81.150002 -5.8200002 2.3418052e-038
-42.759998 -81.199997 -5.8200002 2.3418052e-038
-42.759998 -81.239998 -5.8400002 2.3418052e-038
-42.779999 -81.290001 -5.8499999 2.3418052e-038
-42.789001 -81.330002 -5.8699999 2.3418052e-038
-42.799 -81.379997 -5.8699999 2.3418052e-038
-42.900002 -81.419998 -5.9200001 2.3418052e-038
-42.91 -81.459 -5.9299998 2.3418052e-038
-42.950001 -81.510002 -5.9499998 2.3418052e-038
-43.009998 -81.550003 -5.98 2.3418052e-038
-43.09 -81.599998 -6.0100002 2.3418052e-038
-43.16 -81.639999 -6.04 2.3418052e-038
-43.25 -81.68 -6.0700002 2.3418052e-038
-43.308998 -81.730003 -6.0999999 2.3418052e-038
-43.41 -81.779999 -6.1500001 2.3418052e-038
-43.439999 -81.830002 -6.1700001 2.3418052e-038
-43.52 -81.879997 -6.1999998 2.3418052e-038
-43.609001 -81.93 -6.23 2.3418052e-038
-43.84 -81.980003 -6.3200002 2.3418052e-038
-43.830002 -82.029999 -6.3200002 2.3418052e-038
-43.200001 -80.580002 -5.8699999 2.3418052e-038
-43.07 -80.660004 -5.8400002 2.3418052e-038
-43.058998 -80.709 -5.8400002 2.3418052e-038
-42.84 -80.800003 -5.79 2.3418052e-038
-42.779999 -80.860001 -5.79 2.3418052e-038
-42.75 -80.910004 -5.79 2.3418052e-038
-42.729 -80.959 -5.79 2.3418052e-038
-42.679001 -81.019997 -5.79 2.3418052e-038
-42.700001 -81.059998 -5.8099999 2.3418052e-038
-42.709999 -81.110001 -5.8200002 2.3418052e-038
-42.720001 -81.150002 -5.8400002 2.3418052e-038
-42.679001 -81.209 -5.8400002 2.3418052e-038
-42.639999 -81.260002 -5.8200002 2.3418052e-038
-42.77 -81.290001 -5.8699999 2.3418052e-038
-42.779999 -81.339996 -5.8899999 2.3418052e-038
-42.849998 -81.379997 -5.9200001 2.3418052e-038
-42.859001 -81.43 -5.9299998 2.3418052e-038
-42.91 -81.470001 -5.96 2.3418052e-038
-42.959999 -81.510002 -5.98 2.3418052e-038
-43.02 -81.559998 -6.0100002 2.3418052e-038
-43.118999 -81.599998 -6.04 2.3418052e-038
-43.189999 -81.650002 -6.0700002 2.3418052e-038
-43.25 -81.690002 -6.0999999 2.3418052e-038
-43.32 -81.739998 -6.1399999 2.3418052e-038
-43.400002 -81.790001 -6.1700001 2.3418052e-038
-43.450001 -81.839996 -6.1999998 2.3418052e-038
-43.57 -81.889999 -6.25 2.3418052e-038
-43.75 -81.940002 -6.3099999 2.3418052e-038
-43.738998 -81.989998 -6.3200002 2.3418052e-038
-43.679001 -82.050003 -6.3099999 2.3418052e-038
-43.118999 -80.540001 -5.8499999 2.3418052e-038
-43.16 -80.589996 -5.8699999 2.3418052e-038
-43.009998 -80.669998 -5.8400002 2.3418052e-038
-42.77 -80.809998 -5.8099999 2.3418052e-038
-42.82 -80.849998 -5.8200002 2.3418052e-038
-42.77 -80.910004 -5.8200002 2.3418052e-038
-42.738998 -80.959 -5.8200002 2.3418052e-038
-42.689999 -81.019997 -5.8200002 2.3418052e-038
-42.689999 -81.059998 -5.8400002 2.3418052e-038
-42.700001 -81.110001 -5.8400002 2.3418052e-038
-42.679001 -81.160004 -5.8400002 2.3418052e-038
-42.689999 -81.209 -5.8699999 2.3418052e-038
-42.720001 -81.25 -5.8699999 2.3418052e-038
-42.738998 -81.300003 -5.9000001 2.3418052e-038
-42.789001 -81.339996 -5.9200001 2.3418052e-038
-42.808998 -81.389999 -5.9299998 2.3418052e-038
-42.868999 -81.43 -5.96 2.3418052e-038
-42.91 -81.470001 -5.98 2.3418052e-038
-42.959999 -81.519997 -6.0100002 2.3418052e-038
-43.029999 -81.559998 -6.04 2.3418052e-038
-43.109001 -81.610001 -6.0700002 2.3418052e-038
-43.189999 -81.650002 -6.0999999 2.3418052e-038
-43.25 -81.699997 -6.1399999 2.3418052e-038
-43.32 -81.75 -6.1700001 2.3418052e-038
-43.429001 -81.800003 -6.21 2.3418052e-038
-43.470001 -81.849998 -6.23 2.3418052e-038
-43.720001 -81.900002 -6.3200002 2.3418052e-038
-43.759998 -81.949997 -6.3400002 2.3418052e-038
-43.77 -82.010002 -6.3499999 2.3418052e-038
-43.75 -82.07 -6.3699999 2.3418052e-038
-43.150002 -80.440002 -5.8699999 2.3418052e-038
-43.080002 -80.5 -5.8499999 2.3418052e-038
-43.220001 -80.529999 -5.9000001 2.3418052e-038
-42.75 -80.860001 -5.8400002 2.3418052e-038
-42.77 -80.910004 -5.8400002 2.3418052e-038
-42.720001 -80.970001 -5.8400002 2.3418052e-038
-42.700001 -81.019997 -5.8499999 2.3418052e-038
-42.66 -81.07 -5.8499999 2.3418052e-038
-42.66 -81.120003 -5.8499999 2.3418052e-038
-42.679001 -81.160004 -5.8699999 2.3418052e-038
-42.679001 -81.209 -5.8899999 2.3418052e-038
-42.700001 -81.260002 -5.9000001 2.3418052e-038
-42.729 -81.300003 -5.9200001 2.3418052e-038
-42.77 -81.349998 -5.9499998 2.3418052e-038
-42.84 -81.389999 -5.98 2.3418052e-038
-42.868999 -81.440002 -5.98 2.3418052e-038
-42.929001 -81.480003 -6.0100002 2.3418052e-038
-43 -81.519997 -6.04 2.3418052e-038
-43.02 -81.57 -6.0700002 2.3418052e-038
-43.130001 -81.620003 -6.0999999 2.3418052e-038
-43.200001 -81.669998 -6.1399999 2.3418052e-038
-43.259998 -81.720001 -6.1700001 2.3418052e-038
-43.330002 -81.760002 -6.1999998 2.3418052e-038
-43.479 -81.809998 -6.2600002 2.3418052e-038
-43.549 -81.870003 -6.2800002 2.3418052e-038
-43.729 -81.919998 -6.3499999 2.3418052e-038
-43.759998 -81.970001 -6.3800001 2.3418052e-038
-43.759998 -82.029999 -6.3899999 2.3418052e-038
-43.009998 -80.470001 -5.8499999 2.3418052e-038
-43.080002 -80.5 -5.8899999 2.3418052e-038
-43.080002 -80.660004 -5.9299998 2.3418052e-038
-42.779999 -80.860001 -5.8699999 2.3418052e-038
-42.738998 -80.919998 -5.8699999 2.3418052e-038
-42.729 -80.970001 -5.8699999 2.3418052e-038
-42.679001 -81.019997 -5.8699999 2.3418052e-038
-42.66 -81.07 -5.8699999 2.3418052e-038
-42.650002 -81.120003 -5.8899999 2.3418052e-038
-42.639999 -81.169998 -5.9000001 2.3418052e-038
-42.679001 -81.220001 -5.9200001 2.3418052e-038
-42.700001 -81.260002 -5.9299998 2.3418052e-038
-42.720001 -81.309998 -5.9499998 2.3418052e-038
-42.759998 -81.349998 -5.96 2.3418052e-038
-42.82 -81.400002 -6 2.3418052e-038
-42.889999 -81.440002 -6.0300002 2.3418052e-038
-42.939999 -81.489998 -6.04 2.3418052e-038
-42.979 -81.529999 -6.0700002 2.3418052e-038
-43.09 -81.580002 -6.1199999 2.3418052e-038
-43.139999 -81.629997 -6.1399999 2.3418052e-038
-43.200001 -81.68 -6.1700001 2.3418052e-038
-43.299 -81.730003 -6.21 2.3418052e-038
-43.34 -81.779999 -6.23 2.3418052e-038
-43.439999 -81.830002 -6.2800002 2.3418052e-038
-43.558998 -81.879997 -6.3200002 2.3418052e-038
-43.700001 -81.940002 -6.3800001 2.3418052e-038
-43.66 -81.989998 -6.3800001 2.3418052e-038
-43.738998 -82.050003 -6.4099998 2.3418052e-038
-43.099998 -80.339996 -5.8899999 2.3418052e-038
-42.668999 -80.830002 -5.8499999 2.3418052e-038
-42.808998 -80.860001 -5.9000001 2.3418052e-038
-42.689999 -80.93 -5.8899999 2.3418052e-038
-42.679001 -80.970001 -5.9000001 2.3418052e-038
-42.668999 -81.019997 -5.9000001 2.3418052e-038
-42.650002 -81.080002 -5.9000001 2.3418052e-038
-42.609001 -81.129997 -5.9000001 2.3418052e-038
-42.630001 -81.18 -5.9200001 2.3418052e-038
-42.66 -81.220001 -5.9299998 2.3418052e-038
-42.689999 -81.269997 -5.96 2.3418052e-038
-42.738998 -81.309998 -5.98 2.3418052e-038
-42.77 -81.360001 -6 2.3418052e-038
-42.830002 -81.400002 -6.0300002 2.3418052e-038
-42.880001 -81.449997 -6.04 2.3418052e-038
-42.970001 -81.489998 -6.0900002 2.3418052e-038
-43.009998 -81.540001 -6.0999999 2.3418052e-038
-43.09 -81.589996 -6.1500001 2.3418052e-038
-43.139999 -81.639999 -6.1700001 2.3418052e-038
-43.229 -81.690002 -6.21 2.3418052e-038
-43.299 -81.739998 -6.23 2.3418052e-038
-43.349998 -81.790001 -6.2600002 2.3418052e-038
-43.439999 -81.839996 -6.3099999 2.3418052e-038
-43.549 -81.900002 -6.3499999 2.3418052e-038
-43.558998 -81.949997 -6.3699999 2.3418052e-038
-43.618999 -82.010002 -6.3899999 2.3418052e-038
-43.109001 -80.290001 -5.9000001 2.3418052e-038
-43.049 -80.360001 -5.9000001 2.3418052e-038
-42.868999 -80.599998 -5.9000001 2.3418052e-038
-42.859001 -80.650002 -5.9000001 2.3418052e-038
-42.868999 -80.699997 -5.9299998 2.3418052e-038
-42.82 -80.760002 -5.9200001 2.3418052e-038
-42.82 -80.809998 -5.9299998 2.3418052e-038
-42.709999 -80.879997 -5.9000001 2.3418052e-038
-42.720001 -80.93 -5.9299998 2.3418052e-038
-42.689999 -80.980003 -5.9299998 2.3418052e-038
-42.679001 -81.029999 -5.9299998 2.3418052e-038
-42.630001 -81.080002 -5.9299998 2.3418052e-038
-42.609001 -81.139999 -5.9299998 2.3418052e-038
-42.599998 -81.18 -5.9299998 2.3418052e-038
-42.639999 -81.230003 -5.96 2.3418052e-038
-42.689999 -81.269997 -5.98 2.3418052e-038
-42.738998 -81.32 -6.0100002 2.3418052e-038
-42.77 -81.370003 -6.04 2.3418052e-038
-42.830002 -81.410004 -6.0599999 2.3418052e-038
-42.889999 -81.459 -6.0900002 2.3418052e-038
-42.970001 -81.5 -6.1199999 2.3418052e-038
-43.029999 -81.550003 -6.1500001 2.3418052e-038
-43.099998 -81.599998 -6.1799998 2.3418052e-038
-43.168999 -81.650002 -6.21 2.3418052e-038
-43.259998 -81.699997 -6.25 2.3418052e-038
-43.308998 -81.760002 -6.2800002 2.3418052e-038
-43.418999 -81.809998 -6.3200002 2.3418052e-038
-43.479 -81.860001 -6.3499999 2.3418052e-038
-43.52 -81.919998 -6.3800001 2.3418052e-038
-43.5 -81.970001 -6.3800001 2.3418052e-038
-43.729 -82.029999 -6.46 2.3418052e-038
-43.130001 -80.239998 -5.9299998 2.3418052e-038
-43.099998 -80.300003 -5.9299998 2.3418052e-038
-43.058998 -80.360001 -5.9299998 2.3418052e-038
-42.970001 -80.43 -5.9299998 2.3418052e-038
-43 -80.480003 -5.9499998 2.3418052e-038
-42.918999 -80.540001 -5.9299998 2.3418052e-038
-42.91 -80.599998 -5.9499998 2.3418052e-038
-42.808998 -80.660004 -5.9299998 2.3418052e-038
-42.779999 -80.720001 -5.9299998 2.3418052e-038
-42.759998 -80.769997 -5.9299998 2.3418052e-038
-42.759998 -80.82 -5.9499998 2.3418052e-038
-42.700001 -80.879997 -5.9299998 2.3418052e-038
-42.709999 -80.93 -5.9499998 2.3418052e-038
-42.689999 -80.980003 -5.96 2.3418052e-038
-42.66 -81.040001 -5.96 2.3418052e-038
-42.599998 -81.089996 -5.9499998 2.3418052e-038
-42.609001 -81.139999 -5.96 2.3418052e-038
-42.66 -81.18 -5.98 2.3418052e-038
-42.66 -81.230003 -6 2.3418052e-038
-42.709999 -81.279999 -6.0300002 2.3418052e-038
-42.738998 -81.330002 -6.04 2.3418052e-038
-42.77 -81.370003 -6.0700002 2.3418052e-038
-42.830002 -81.419998 -6.0900002 2.3418052e-038
-42.91 -81.470001 -6.1199999 2.3418052e-038
-43.009998 -81.510002 -6.1700001 2.3418052e-038
-43.109001 -81.559998 -6.21 2.3418052e-038
-43.118999 -81.620003 -6.21 2.3418052e-038
-43.189999 -81.669998 -6.25 2.3418052e-038
-43.27 -81.720001 -6.2800002 2.3418052e-038
-43.349998 -81.769997 -6.3200002 2.3418052e-038
-43.400002 -81.830002 -6.3499999 2.3418052e-038
-43.470001 -81.879997 -6.3800001 2.3418052e-038
-43.479 -81.940002 -6.3899999 2.3418052e-038
-43.618999 -81.989998 -6.4499998 2.3418052e-038
-43.759998 -82.059998 -6.5 2.3418052e-038
-43.168999 -80.169998 -5.96 2.3418052e-038
-43.139999 -80.230003 -5.96 2.3418052e-038
-43.09 -80.300003 -5.96 2.3418052e-038
-42.979 -80.370003 -5.9499998 2.3418052e-038
-42.939999 -80.43 -5.9499998 2.3418052e-038
-42.900002 -80.489998 -5.9499998 2.3418052e-038
-42.900002 -80.550003 -5.96 2.3418052e-038
-42.868999 -80.599998 -5.96 2.3418052e-038
-42.859001 -80.660004 -5.96 2.3418052e-038
-42.82 -80.709 -5.96 2.3418052e-038
-42.799 -80.769997 -5.98 2.3418052e-038
-42.759998 -80.82 -5.98 2.3418052e-038
-42.720001 -80.879997 -5.98 2.3418052e-038
-42.639999 -80.940002 -5.96 2.3418052e-038
-42.639999 -80.989998 -5.98 2.3418052e-038
-42.650002 -81.040001 -5.98 2.3418052e-038
-42.618999 -81.089996 -5.98 2.3418052e-038
-42.689999 -81.139999 -6.0100002 2.3418052e-038
-42.759998 -81.18 -6.04 2.3418052e-038
-42.650002 -81.239998 -6.0300002 2.3418052e-038
-42.689999 -81.290001 -6.04 2.3418052e-038
-42.77 -81.330002 -6.0900002 2.3418052e-038
-42.82 -81.379997 -6.0999999 2.3418052e-038
-42.84 -81.43 -6.1199999 2.3418052e-038
-42.880001 -81.480003 -6.1500001 2.3418052e-038
-42.979 -81.529999 -6.1799998 2.3418052e-038
-43.080002 -81.57 -6.23 2.3418052e-038
-43.109001 -81.629997 -6.25 2.3418052e-038
-43.209999 -81.68 -6.2800002 2.3418052e-038
-43.238998 -81.730003 -6.3099999 2.3418052e-038
-43.380001 -81.790001 -6.3499999 2.3418052e-038
-43.359001 -81.839996 -6.3699999 2.3418052e-038
-43.380001 -81.900002 -6.3899999 2.3418052e-038
-43.459999 -81.949997 -6.4299998 2.3418052e-038
-43.599998 -82.010002 -6.48 2.3418052e-038
-43.118999 -80.139999 -5.96 2.3418052e-038
-43.080002 -80.199997 -5.96 2.3418052e-038
-43.099998 -80.25 -5.98 2.3418052e-038
-43.039001 -80.309998 -5.98 2.3418052e-038
-43.009998 -80.370003 -5.98 2.3418052e-038
-42.970001 -80.440002 -5.98 2.3418052e-038
-42.929001 -80.489998 -5.98 2.3418052e-038
-42.880001 -80.559998 -5.98 2.3418052e-038
-42.859001 -80.610001 -5.98 2.3418052e-038
-42.830002 -80.669998 -5.98 2.3418052e-038
-42.82 -80.720001 -6 2.3418052e-038
-42.77 -80.779999 -6 2.3418052e-038
-42.738998 -80.839996 -6 2.3418052e-038
-42.689999 -80.889999 -6 2.3418052e-038
-42.668999 -80.949997 -6 2.3418052e-038
-42.679001 -80.989998 -6.0100002 2.3418052e-038
-42.639999 -81.050003 -6.0100002 2.3418052e-038
-42.668999 -81.099998 -6.04 2.3418052e-038
-42.77 -81.139999 -6.0700002 2.3418052e-038
-42.779999 -81.190002 -6.0900002 2.3418052e-038
-42.66 -81.25 -6.0599999 2.3418052e-038
-42.689999 -81.300003 -6.0700002 2.3418052e-038
-42.738998 -81.349998 -6.0999999 2.3418052e-038
-42.77 -81.389999 -6.1199999 2.3418052e-038
-42.859001 -81.440002 -6.1500001 2.3418052e-038
-42.939999 -81.489998 -6.1999998 2.3418052e-038
-43 -81.540001 -6.23 2.3418052e-038
-43.139999 -81.589996 -6.2800002 2.3418052e-038
-43.16 -81.639999 -6.3000002 2.3418052e-038
-43.209999 -81.699997 -6.3200002 2.3418052e-038
-43.279999 -81.75 -6.3499999 2.3418052e-038
-43.299 -81.809998 -6.3800001 2.3418052e-038
-43.279999 -81.860001 -6.3800001 2.3418052e-038
-43.368999 -81.919998 -6.4200001 2.3418052e-038
-43.450001 -81.980003 -6.46 2.3418052e-038
-43.179001 -80.07 -6.0100002 2.3418052e-038
-43.139999 -80.139999 -6.0100002 2.3418052e-038
-43.099998 -80.199997 -6.0100002 2.3418052e-038
-43.058998 -80.260002 -6.0100002 2.3418052e-038
-43.049 -80.32 -6.0100002 2.3418052e-038
-42.988998 -80.389999 -6.0100002 2.3418052e-038
-42.970001 -80.440002 -6.0100002 2.3418052e-038
-42.91 -80.510002 -6.0100002 2.3418052e-038
-42.889999 -80.559998 -6.0100002 2.3418052e-038
-42.84 -80.620003 -6.0100002 2.3418052e-038
-42.830002 -80.68 -6.0300002 2.3418052e-038
-42.77 -80.739998 -6.0100002 2.3418052e-038
-42.75 -80.790001 -6.0300002 2.3418052e-038
-42.709999 -80.849998 -6.0300002 2.3418052e-038
-42.700001 -80.900002 -6.0300002 2.3418052e-038
-42.679001 -80.949997 -6.04 2.3418052e-038
-42.650002 -81.010002 -6.04 2.3418052e-038
-42.650002 -81.059998 -6.04 2.3418052e-038
-42.738998 -81.099998 -6.0900002 2.3418052e-038
-42.709999 -81.160004 -6.0900002 2.3418052e-038
-42.650002 -81.209 -6.0700002 2.3418052e-038
-42.650002 -81.260002 -6.0900002 2.3418052e-038
-42.738998 -81.309998 -6.1199999 2.3418052e-038
-42.77 -81.360001 -6.1500001 2.3418052e-038
-42.799 -81.410004 -6.1700001 2.3418052e-038
-42.880001 -81.459 -6.1999998 2.3418052e-038
-42.939999 -81.510002 -6.23 2.3418052e-038
-43.029999 -81.559998 -6.2600002 2.3418052e-038
-43.039001 -81.610001 -6.2800002 2.3418052e-038
-43.150002 -81.660004 -6.3200002 2.3418052e-038
-43.229 -81.720001 -6.3699999 2.3418052e-038
-43.209999 -81.769997 -6.3699999 2.3418052e-038
-43.220001 -81.830002 -6.3899999 2.3418052e-038
-43.308998 -81.889999 -6.4200001 2.3418052e-038
-43.389999 -81.940002 -6.46 2.3418052e-038
-43.66 -82.010002 -6.5599999 2.3418052e-038
-43.200001 -80.019997 -6.04 2.3418052e-038
-43.16 -80.080002 -6.04 2.3418052e-038
-43.130001 -80.150002 -6.04 2.3418052e-038
-43.09 -80.209 -6.04 2.3418052e-038
-43.058998 -80.269997 -6.04 2.3418052e-038
-43.02 -80.330002 -6.04 2.3418052e-038
-42.959999 -80.400002 -6.04 2.3418052e-038
-42.939999 -80.449997 -6.04 2.3418052e-038
-42.91 -80.510002 -6.04 2.3418052e-038
-42.849998 -80.57 -6.04 2.3418052e-038
-42.830002 -80.629997 -6.04 2.3418052e-038
-42.82 -80.68 -6.0599999 2.3418052e-038
-42.77 -80.739998 -6.04 2.3418052e-038
-42.738998 -80.800003 -6.04 2.3418052e-038
-42.700001 -80.860001 -6.04 2.3418052e-038
-42.700001 -80.910004 -6.0599999 2.3418052e-038
-42.668999 -80.959 -6.0700002 2.3418052e-038
-42.639999 -81.019997 -6.0700002 2.3418052e-038
-42.618999 -81.07 -6.0700002 2.3418052e-038
-42.599998 -81.120003 -6.0700002 2.3418052e-038
-42.709999 -81.160004 -6.1199999 2.3418052e-038
-42.668999 -81.220001 -6.1199999 2.3418052e-038
-42.679001 -81.269997 -6.1199999 2.3418052e-038
-42.720001 -81.32 -6.1500001 2.3418052e-038
-42.77 -81.370003 -6.1799998 2.3418052e-038
-42.830002 -81.419998 -6.21 2.3418052e-038
-42.91 -81.470001 -6.25 2.3418052e-038
-42.939999 -81.519997 -6.2600002 2.3418052e-038
-43 -81.57 -6.3000002 2.3418052e-038
-43.118999 -81.629997 -6.3400002 2.3418052e-038
-43.16 -81.68 -6.3699999 2.3418052e-038
-43.168999 -81.730003 -6.3800001 2.3418052e-038
-43.130001 -81.790001 -6.3800001 2.3418052e-038
-43.259998 -81.849998 -6.4299998 2.3418052e-038
-43.330002 -81.900002 -6.46 2.3418052e-038
-43.59 -81.970001 -6.5599999 2.3418052e-038
-43.25 -79.959 -6.0700002 2.3418052e-038
-43.189999 -80.029999 -6.0599999 2.3418052e-038
-43.130001 -80.099998 -6.0599999 2.3418052e-038
-43.130001 -80.150002 -6.0700002 2.3418052e-038
-43.07 -80.220001 -6.0700002 2.3418052e-038
-43.029999 -80.279999 -6.0700002 2.3418052e-038
-43.009998 -80.339996 -6.0700002 2.3418052e-038
-42.970001 -80.400002 -6.0700002 2.3418052e-038
-42.929001 -80.459 -6.0700002 2.3418052e-038
-42.900002 -80.519997 -6.0700002 2.3418052e-038
-42.868999 -80.580002 -6.0700002 2.3418052e-038
-42.859001 -80.639999 -6.0900002 2.3418052e-038
-42.82 -80.690002 -6.0900002 2.3418052e-038
-42.759998 -80.760002 -6.0700002 2.3418052e-038
-42.729 -80.809998 -6.0700002 2.3418052e-038
-42.720001 -80.860001 -6.0900002 2.3418052e-038
-42.689999 -80.919998 -6.0900002 2.3418052e-038
-42.689999 -80.970001 -6.0900002 2.3418052e-038
-42.668999 -81.029999 -6.0999999 2.3418052e-038
-42.77 -81.07 -6.1500001 2.3418052e-038
-42.668999 -81.129997 -6.1199999 2.3418052e-038
-42.709999 -81.18 -6.1500001 2.3418052e-038
-42.650002 -81.230003 -6.1500001 2.3418052e-038
-42.679001 -81.279999 -6.1700001 2.3418052e-038
-42.75 -81.330002 -6.1999998 2.3418052e-038
-42.779999 -81.379997 -6.21 2.3418052e-038
-42.849998 -81.43 -6.25 2.3418052e-038
-42.929001 -81.489998 -6.2800002 2.3418052e-038
-42.970001 -81.540001 -6.3099999 2.3418052e-038
-43.07 -81.589996 -6.3499999 2.3418052e-038
-43.130001 -81.650002 -6.3800001 2.3418052e-038
-43.080002 -81.699997 -6.3800001 2.3418052e-038
-43.130001 -81.760002 -6.3899999 2.3418052e-038
-43.179001 -81.809998 -6.4299998 2.3418052e-038
-43.359001 -81.870003 -6.5 2.3418052e-038
-43.459999 -81.93 -6.5300002 2.3418052e-038
-41.900002 -80.209 -5.73 2.3509886e-038
-43.259998 -79.970001 -6.0999999 2.3418052e-038
-43.220001 -80.040001 -6.0900002 2.3418052e-038
-43.139999 -80.110001 -6.0900002 2.3418052e-038
-43.07 -80.18 -6.0900002 2.3418052e-038
-43.049 -80.239998 -6.0900002 2.3418052e-038
-43.039001 -80.290001 -6.0900002 2.3418052e-038
